ply
format ascii 1.0
element vertex 693
property double x
property double y
property double z
property uchar red
property uchar green
property uchar blue
end_header
-0.1052116945698011 -0.1908069191863042 1.3708985004390855 107 121 130
-0.3520452869870257 -0.1761416163697564 1.3345954677768934 184 192 195
0.3870642505168675 -0.0950762804041419 1.2020915372621255 137 124 107
-0.4302968082362737 -0.1701159459374039 1.3852783173116834 182 192 201
-0.3624659696247484 -0.1068711535419516 1.0839011027884060 103 116 133
0.1164374035411770 -0.0599410768753697 1.3287637371470569 59 66 84
0.0292781049997369 -0.0446377488474246 1.2538539315281105 82 89 105
-0.3303560212872221 -0.0592100756185246 1.1543728489271763 112 123 145
0.0138691911227814 -0.0352408684891591 1.2446474015930673 80 88 111
-0.1592344915171076 -0.0205609745442114 1.2369797649968222 139 125 114
-0.1691280397332501 -0.0087617660105033 1.2396589903973922 182 178 167
-0.3259550005971549 -0.0109766567588557 1.1934992877633672 169 169 167
-0.3093782752668512 -0.0026482207401984 1.0784862391782801 174 172 173
-0.0119771046966220 0.0319907258271943 1.2359676738942011 88 114 149
-0.3513442048513774 0.0212875986887822 1.0422345244531181 119 117 122
-0.3224656998097371 0.0314382445694427 1.2035262329188010 165 156 157
0.3386637360461192 0.0558559042231924 1.1621497984293361 177 170 154
0.3385588212788392 0.0668107377178704 1.1607876558827994 167 170 159
-0.3094656518805686 0.0554079034060645 1.2041901479674952 92 95 100
-0.3038466775361676 0.0618084094827985 1.0602837155607572 65 73 94
0.2066070057696867 0.0931103212422729 1.2899396455729106 131 133 132
0.0348594277620414 0.1172951553342287 1.2111019643521559 168 173 166
-0.3293271065045567 0.1187445069074934 1.1776107639454885 87 90 99
0.0666203402924243 0.1252452951580897 1.2228158064480228 162 167 160
0.1239439882637618 0.1356482181961932 1.2645325226825421 188 194 194
-0.4098512927474259 0.1207175487956136 1.0103015681991248 121 104 112
-0.3221165684249448 0.1824670437152925 1.1749261264432067 119 120 138
0.1304033553534303 0.2059113920324782 1.2543106754397182 66 66 74
-0.3313936982636568 0.2043912955787870 1.1636573570134838 73 76 91
-0.4590002868946382 0.1849764779363917 0.9901160735939293 72 82 107
-0.3038639929811305 0.1900338495558883 1.0175571663608798 95 98 107
-0.0213338166755645 0.2144127243537630 1.2008368267099732 80 78 91
-0.0378827334529952 -0.2604319470766766 1.4232834921626745 236 255 255
0.3773598801461572 -0.1988188984110205 1.2977272567991815 106 88 198
-0.3849736568488962 -0.2037500752574427 1.1590560821348255 114 144 180
-0.4404021547586223 -0.2264048877624648 1.2953895877990005 206 219 225
-0.0069968204352040 -0.1911824243073943 1.3834077617850844 111 122 154
-0.4393354557209753 -0.1850315557196918 1.3943501331416635 254 254 252
0.3683852169892806 -0.0898198829636396 1.2046930908035500 43 64 95
0.4195951842118058 -0.0817177582651503 1.2089562577898916 63 69 85
0.2163801819945794 -0.0853302697813523 1.3722708008979558 117 144 163
-0.3630826216720114 -0.1009493281254411 1.0754539730004520 180 184 195
0.2663613372173411 -0.0684051622112623 1.3330906808698950 150 153 146
-0.2337280528387959 -0.0835461125158845 1.2405719360534420 175 176 170
-0.3047589501943561 -0.0869096728133907 1.2278049145846011 156 151 145
0.3266158434639657 -0.0478673386484289 1.1815875170199415 165 181 204
-0.3009557880734449 -0.0854889270259168 1.2293658468123247 136 129 119
0.2325815069302038 -0.0497286853131096 1.3251012321088806 140 143 136
-0.8693496089595084 -0.1166544364891509 1.5253944965952000 159 150 141
0.0212912187364636 -0.0410705361939872 1.2504858837686927 97 101 113
-0.3407292048983073 -0.0532985200548463 1.2236417272550724 129 156 185
-0.3297664350679728 -0.0184932526685438 1.2091429707373853 141 135 123
-0.3208643956645873 -0.0072499794932703 1.1463556916000899 163 164 156
-0.3069464308932284 0.0274510232077637 1.0596795061910902 178 184 184
-0.2132560437272990 0.0418609287667602 1.2303859018523269 101 124 158
-0.3068155001560171 0.0584285911397727 1.0417523826427619 180 179 174
-0.0307916392391879 0.0784908501876566 1.2172817598668804 100 110 120
-0.3079201924916765 0.0838453230267366 1.0607621290875038 154 159 162
0.4275722874617129 0.1045189192964349 1.1699350801740569 111 96 103
-0.3213854114891125 0.1120085065765532 1.0287139170672872 134 112 124
-0.3083119256544607 0.1155284118048316 1.0494392316113508 90 86 100
0.3388751909405190 0.1357153790823429 1.1474958611569577 156 159 152
-0.3072606936890344 0.1295005275846950 1.0396475833610304 114 123 122
0.3387102481550522 0.1411038650947212 1.1469375822737553 161 156 153
-0.4414767612039353 0.1343367384802454 1.0044561470553124 185 183 160
0.3570398030420889 0.1545465541686003 1.1385091449941740 160 159 139
-0.0466844562398294 0.1773372708362271 1.1902210349845515 101 97 96
-0.3299639602132222 0.2076986716288742 1.1608372195532464 62 59 78
-0.4580286916703638 0.1948073817887420 0.9867886109864548 74 90 115
-0.0656328122940887 0.2237753107715600 1.1480945280039894 125 148 154
0.3988832832103441 0.2371286187158872 1.1391157959423732 131 141 143
-0.0559427051228578 -0.2887143831816297 1.4345658823386180 108 115 159
-0.1011480989413111 -0.2197172097484630 1.3780131599293948 200 200 202
-0.3605868251258615 -0.2158204596894443 1.4096960110324057 201 200 214
-0.1121777631326410 -0.1672741053657473 1.3606521216984671 101 124 158
0.4167157916117012 -0.0910908249885167 1.2032337155750192 157 158 142
-0.0055397001935442 -0.1124326651288556 1.2719247597745102 75 86 108
0.3951377665671277 -0.0706187149517320 1.2071494797239726 104 121 149
-0.3595930561727513 -0.0877431275889504 1.0697655048772905 90 110 137
-0.2950276734536561 -0.0893237618176029 1.2342663304609391 145 139 141
0.3309213840461978 -0.0422435658223017 1.1600355681382417 124 140 165
-0.3247228049748692 -0.0408571545990102 1.2205499592089879 77 91 128
-0.3080160106049790 -0.0340889290803536 1.0783235726128348 111 108 117
0.1570581396697975 -0.0096395948836387 1.2908848638046608 148 131 105
0.3918425569208452 0.0221768298007148 1.1882481721044005 51 65 92
0.3991849312948887 0.0316800865327853 1.1871909096707518 61 84 128
-0.2731143361654467 0.0270312936687782 1.2128488534860138 167 168 162
-0.3226475746092113 0.0253911802432603 1.1445706360480441 158 165 158
-0.3066346710383265 0.0292801646815681 1.0707113172127007 145 150 154
0.3819847723869198 0.0793310555582790 1.1656577260861509 64 83 100
0.3821231644828068 0.0790330835294053 1.1654200563411214 42 57 62
-0.3008322220417180 0.0633019838121330 1.0423746144885171 107 113 127
0.3359530017956678 0.0810515457731726 1.1561024346287101 130 132 127
0.0021377306428029 0.0911642753692595 1.2186308449820278 54 66 88
0.1927400378188283 0.1025716330628236 1.2833189372613565 72 91 108
0.0670524880675483 0.1261111562540245 1.2552234377441718 114 111 106
-0.3208116036081020 0.1268466139785665 1.1224391470028943 142 143 137
0.3931774971305296 0.1427160339603090 1.1640560026826969 55 70 89
-0.3083629342481643 0.1321677407436952 1.0462796871253943 88 85 92
-0.3082795913435051 0.1629347584403039 1.0343216042762915 146 154 156
-0.3082939249356291 0.1782053876987080 1.0376250455163534 87 87 95
-0.3259638902264226 0.1980030930539801 1.1696230623657162 78 76 87
-0.0147106021339123 0.1985144736910040 1.2044391889190920 78 104 141
-0.3082662801794008 0.1828073250524120 1.0366208397220713 77 84 90
0.0012047618567015 0.2021866957693538 1.2067984168007166 76 69 76
-0.0304085999918015 0.2033146773404513 1.2002233106233382 85 73 83
0.4123026871927453 0.1952119592055634 1.1561148730416830 109 135 134
0.0357925859251317 0.2153474063708925 1.1999916018238197 72 71 79
-0.3667523230603268 0.2178378069669574 0.9965293381995796 70 89 96
0.1396476929707631 0.2381015268907280 1.1988832050749429 41 43 64
-0.3917873563201077 -0.2177201679231661 1.1711125618702103 130 142 182
0.2099743353474701 -0.2003065197682077 1.4701864305789867 253 255 254
-0.4306640048135602 -0.2257199378023165 1.2942383580477643 154 153 171
0.0074642092212568 -0.1653860217748611 1.3662880570475933 153 184 213
-0.3638767463642188 -0.1215523001860952 1.0609477442313953 177 180 195
-0.0149310054291385 -0.1111516590343805 1.2567718279624174 127 128 133
-0.3115116318947027 -0.0711003711250373 1.0823583469538904 85 102 128
0.0583475465038629 -0.0412675237356809 1.2625496980963906 151 180 214
0.0681773392004735 -0.0230261225898054 1.2473083106100789 176 164 148
-0.4395635983118431 -0.0407046650687292 1.0379902677131365 148 151 168
0.3217736823974304 0.0188928973472023 1.1726051239141009 153 159 157
-0.4378321572954897 -0.0037367978079028 1.0254046126420919 194 197 206
-0.3271609479039079 -0.0001899613357248 1.0502739818574611 110 109 125
-0.3198307404023392 0.0079601784103648 1.1350563729777638 111 105 115
-0.3219283437240778 0.0092633978533526 1.1468002256531065 132 132 130
-0.2619146524638613 0.0307582029649431 1.2137121882988275 174 174 172
-0.2445581666284564 0.0311451389579855 1.2182070148620139 149 149 147
0.1617637888934394 0.0475397630802565 1.2905021794981175 102 112 124
-0.3201423226563279 0.0417887138987915 1.1290218533289507 117 106 112
-0.2625111129381800 0.0637464721948489 1.2084515466893546 164 164 162
-0.2445317854599529 0.0638749559239799 1.2119766394669667 172 172 170
-0.1849202849943027 0.0662787727396117 1.2208325038217114 173 175 174
0.1604610662186856 0.0900760364804553 1.2845293615985762 71 94 110
0.4264104405453219 0.0956904466608570 1.1726166943168461 160 155 133
-0.3294326510405348 0.0854786357664725 1.1895967659959064 177 184 176
0.2692131304353771 0.1541807434439332 1.2876045604754500 67 81 82
-0.2613563946315162 0.1486410578764363 1.1914278238441467 148 154 154
-0.3207592991112427 0.1518255367302326 1.1168462994924706 130 137 130
-0.3097895761264546 0.1656630258048711 1.0497774473883050 141 144 149
-0.4563195410613650 0.1812156492996261 0.9928620108329281 176 169 159
-0.0300817841611250 0.2016918625235465 1.2004875348140922 90 85 91
-0.0044273409430305 0.2036613759728213 1.2054495565986434 100 142 180
0.4070566062533894 0.1576636752140389 0.9178332009208596 86 106 130
-0.1755234842488208 0.2494444172463342 1.1403866827411087 58 75 93
-0.3959804993551639 -0.2562542891829467 1.1666255506282563 137 159 196
0.2044732216600997 -0.2272182960434889 1.4743912267821955 111 122 154
0.0335545264652276 -0.2129403490719782 1.4803678061386170 255 255 255
-0.2729694093401730 -0.1967578341378111 1.3692967995302308 159 180 209
0.4152693629674153 -0.0361047101074813 1.1874842758398974 153 141 117
-0.3221279593255986 -0.0574930184469542 1.2292117260065085 87 104 134
-0.3251111371160191 0.0103508983551336 1.1633615468134655 109 119 121
-0.3246775937526126 0.0383902150475769 1.2015850789379732 109 97 109
-0.3739826707833016 0.0348616627221176 1.0405012778138734 73 89 105
-0.3217823492086385 0.0504297539899816 1.1378152115591829 164 166 163
-0.1859412712648942 0.0591492489758456 1.2292255544768211 132 128 127
-0.3182503309003240 0.0493998874921189 1.0411155629943221 189 197 208
-0.3088422772772508 0.0550359655331980 1.0697578522713411 164 169 165
0.0846019070625952 0.0980918585103305 1.2657634180592057 54 63 70
0.3887122034988670 0.1473754208230795 1.1603938339705637 91 107 120
-0.3245209494466716 0.1889321260996722 1.1728317382428373 79 76 85
0.0658010785893157 0.2308030895110737 1.2004878049872358 132 139 157
0.0672281450335303 0.2467968468449032 1.1959832052796222 108 126 138
0.3824786573884844 -0.2144023671192565 1.3029422226203824 102 119 165
0.0025998560696988 -0.1927341479971290 1.4010971589734160 91 93 108
-0.3565346739094349 -0.2117729842184259 1.3289572404070031 158 165 183
-0.3576354185027121 -0.1562890383947312 1.1206101298273154 167 189 213
0.1409999931761862 -0.0483605673885926 1.1780519165032000 75 93 129
-0.3703501106509667 -0.0102331465574611 1.0456821204932185 114 141 171
-0.3463802327829022 0.0075527483265336 1.0443678619995320 111 110 128
-0.2852779234341370 0.0121175537677719 1.2136099914109029 170 169 165
-0.2828894914019796 0.0248337355607003 1.2154882150983490 72 78 92
-0.2926071463079965 0.0350833615202837 1.2146437700462467 118 138 162
-0.3027308956574554 0.0429512516590295 1.2152775868318382 66 76 86
0.2621078246148462 0.0999285959070415 1.3277657433353975 76 96 123
-0.2816123899008514 0.0841911590885144 1.2025184301533940 66 80 93
-0.3109985288046527 0.1174670261816731 1.0738297361318327 72 83 85
-0.2057207174456254 0.1343293695144894 1.2036579499392384 163 163 161
-0.4363102203393073 0.1394173311824034 1.0026257397616636 111 99 101
-0.3082317453484499 0.2338655344601573 1.0366948137422716 102 117 138
-0.1299915383938159 0.2569368755722746 1.1982040556222879 50 58 71
-0.1021593047234709 -0.1617577653576065 1.3574113767209988 175 182 190
0.0403423349480958 -0.1010394397035970 1.3512389501563562 62 77 106
0.1081338306732927 -0.0830444683826440 1.3195941503202873 63 84 115
-0.4608708063946316 -0.0498191326497956 1.0326951790645140 255 255 255
-0.3227824322818322 -0.0448397150992035 1.2227420301864660 97 107 143
0.3956192323098693 0.0280166052877877 1.1876173392727079 92 107 126
0.3410823725276905 0.0276903307105609 1.1699239029552810 119 99 100
-0.4059452090387537 0.0149457522079618 1.0340103021127707 183 188 182
-0.3031594169301041 0.0241136126867500 1.2188883306381060 69 76 86
-0.2695140518665511 0.0299404334326148 1.2150676767745481 164 169 162
-0.4165273817159293 0.0379724311413797 1.0275304386403070 124 127 136
-0.3252260140920928 0.0413071866262071 1.0417160731103408 136 123 132
-0.3695260460066726 0.0526414722822894 1.0321472570800498 87 99 113
0.0720730956235513 0.1048451995113766 1.2369363353950014 98 97 92
-0.4361361496886154 0.1074590908532778 1.0093087584855949 126 121 128
-0.3573844414832361 0.1159328258486354 1.0226829807123701 182 178 167
0.3967248113280079 0.1478065400461181 1.1625502104279937 114 132 146
-0.0268373806771042 0.1863483141928984 1.2045874036955841 91 80 76
-0.0009638705093445 0.2111388001333235 1.2021471685462721 86 75 71
0.0693113703375109 0.2411525239086967 1.2063927132845578 44 49 69
0.3824264790530867 -0.1958377405261271 1.2992449084478936 89 100 122
0.0366686663652542 -0.2359439192605222 1.4069579355211506 84 92 115
0.0072165396087829 -0.0466276474298199 1.2520542781900004 177 177 177
0.3563779229050360 -0.0211520250083019 1.1804543334119009 116 93 99
-0.2534782436846256 0.0126238414239563 1.2197007096458521 134 122 126
-0.3124703203432562 0.0160036477451782 1.0481710126977810 194 194 202
0.2610971518049857 0.0400172213597180 1.3169250158178247 66 95 125
-0.3114952522613467 0.0310875072298042 1.2051732311364798 165 162 157
-0.1767492105913228 0.0410658513904180 1.2289030498813063 130 124 124
-0.3584336135634287 0.0329568663568090 1.0393301716671943 190 186 187
0.0660933671883940 0.1666799830694765 1.2434053050276970 111 97 94
-0.0251060643434441 0.1693191468874365 1.2057882658833241 94 83 77
-0.3139818391624632 0.1800723565565252 1.1778148550900083 136 143 149
0.0632407326071214 0.2070598862129614 1.2037769017348847 143 155 155
0.0685854904892456 0.2174763695971683 1.2267642743883085 56 57 59
-0.4130042396276488 -0.1422723600677176 1.0957967711678021 114 143 173
0.3774954351296637 -0.0623045648768995 1.1949665739828401 155 151 148
-0.3179530091981202 -0.0766564624197514 1.1026374791685563 90 109 141
-0.3173024221877594 -0.0763749128419980 1.1017742510582607 90 109 141
-0.3168958460168999 0.2363799288434804 1.0876566671715828 94 111 131
0.0051685831986392 -0.2161656799980203 1.4237615501665268 255 255 255
0.3261068743999075 0.0357568449091624 1.1709500466346363 147 145 150
-0.2084321107959503 0.0828841469811803 1.2034929301315977 75 84 99
0.3274286512046500 0.0977639807027406 1.1639745556017935 183 174 157
-0.2926448169017593 0.2081961961816295 1.1788737313799897 15 28 60
-0.0676367093505349 -0.0573522339002362 1.2536697502680321 89 105 141
-0.1319288371830015 0.0850500720327630 1.2209833684968645 104 121 151
-0.3800871273699346 0.2303422173458389 0.9937255181586692 81 90 99
-0.3907352772397202 -0.1984561274432562 1.3267517109961102 255 255 255
0.2314970311412666 -0.1072576270565690 1.4068780874774331 56 80 108
-0.4329853337274782 -0.0177444919848271 1.0330854786280139 118 123 142
-0.2745466829955304 -0.1849493798423015 1.3886157294347390 107 130 164
0.3845545962205333 -0.1438563192158815 1.2745738834097269 47 59 85
-0.1584692233416175 -0.2337132351346583 1.3514683214812298 255 255 255
0.1632469729234132 -0.1448396128036165 1.4782692984812860 65 87 126
-0.0451270889741514 -0.3145627245589621 1.4465567980711695 251 255 255
0.2879991336747585 -0.2074516707639060 1.4486631699675605 147 155 168
0.0335959169830142 -0.2220416072341878 1.4524892518685768 186 188 187
0.4153001569922340 -0.1363573041325200 1.2632174381693699 145 175 167
0.2087261653469709 -0.1826563471788411 1.4593680202196095 138 157 171
-0.2864129954764211 -0.2377672127299320 1.3893361185789119 255 251 255
0.1668717888622045 -0.1840582943098299 1.4472804892727023 101 120 160
0.2084605629796232 -0.1798798367658896 1.4553123415184712 64 85 106
-0.0176018194586772 -0.1955508368407322 1.3847966307486443 154 178 206
0.4386790223194556 -0.1029802227459286 1.2432197900614168 144 168 178
-0.2913613923853332 -0.2094384101781919 1.3741359576868331 107 105 145
0.3475826675669584 -0.0992827053708031 1.2232131560587820 61 75 112
0.0360696225282949 -0.1526334815055782 1.3914663489729409 96 92 109
0.0403106830219618 -0.1442813856579429 1.3855768031837208 158 176 190
0.4188642496284563 -0.0664009499928759 1.2100641131292151 89 94 132
0.2032260356372697 -0.1006435735864327 1.3767223463820568 63 78 99
-0.0103001897857855 -0.1090821661853154 1.2557564645456547 130 121 114
0.4221896559738744 -0.0563852592018925 1.2056888687152791 151 151 159
0.0487236309618964 -0.0930138636782400 1.3433505867035167 132 155 187
0.0096468738022233 -0.0906009300398833 1.2928292536322563 77 83 99
0.0086497941577481 -0.0855487100338089 1.2925542831056693 123 139 154
0.0401680305011628 -0.0794641911569091 1.2937095074629190 141 172 200
0.3995851420135453 -0.0331245461992025 1.1852908066667454 146 128 92
-0.0810338779276646 -0.0776416367932730 1.2648781387028054 146 170 198
-0.3240250570568105 -0.0889977300430266 1.0801065721572607 158 180 217
-0.1934623990487565 -0.0773951496645547 1.2484504962478342 175 182 174
0.3616674316429861 -0.0225913402766314 1.1833424760128222 161 140 119
0.0524983730740726 -0.0481653278982413 1.2680568924763054 143 169 202
0.2009306856966553 -0.0322966904044439 1.3185270808040894 150 153 160
-0.2719542813402007 -0.0665847430526498 1.2371912586242202 125 124 122
0.1992056417871186 -0.0286502031017937 1.3148094389629776 170 182 182
0.0540917633904303 -0.0317555266385122 1.2452801151909876 142 161 178
0.0092672092652123 -0.0286500273120903 1.2331300919100023 96 99 118
0.2337468645121413 -0.0086754670509000 1.3084534913273016 105 95 83
0.1759965355744892 -0.0103591598044151 1.2979646492097254 98 82 67
-0.0656566150605588 -0.0258051641857573 1.2206099643342967 189 190 184
-0.0161401657530776 -0.0216242108939034 1.2294765051347163 173 170 153
-0.0237296250505748 -0.0218161620366058 1.2279428113558339 170 164 152
-0.0387653589881834 -0.0221587902177042 1.2256173116384432 180 178 163
0.1205494707783616 -0.0119586472122178 1.2872535436341852 122 110 96
0.4429792723029535 0.0151446269579874 1.1917844413684280 95 84 80
-0.0538676850467022 -0.0225609713567823 1.2229212271545973 172 170 158
0.1392036964551012 -0.0101007114582043 1.2905248052162372 174 168 146
0.1014910935606092 -0.0126481550750058 1.2842246817491603 121 103 89
0.1180688635703049 -0.0107482187483461 1.2866397207152407 184 186 162
0.4573056417067385 0.0185864403297503 1.1944228120285916 107 100 90
-0.2965189998273242 -0.0380706070308787 1.2338995250500873 152 171 201
0.3512945242891480 0.0121944188132251 1.1747747813165539 109 91 89
0.3476178994246942 0.0134819942736190 1.1741880734721857 98 83 80
-0.3202764647182896 -0.0308905750596253 1.1430652973504238 111 105 107
-0.1877740851864405 -0.0217934461273906 1.2327265807633245 117 109 106
-0.2012366826406474 -0.0219784447888512 1.2296549045281269 151 142 135
-0.1758752274569607 -0.0204166027038831 1.2333041466715562 182 178 167
-0.1896098148813825 -0.0209312030800487 1.2307873735054624 175 176 168
-0.1824186971254264 -0.0205759516287536 1.2316470949737317 167 168 160
0.4350835931635428 0.0258589452760115 1.1895536995455667 112 104 93
0.2105229142564388 0.0096373691377941 1.3091967286877459 92 78 78
0.4505532132272312 0.0317226229370519 1.1897090246369071 92 78 93
-0.0003508591949971 0.0008953285518435 1.2404788244441136 188 186 174
0.4314322924004269 0.0328082095411511 1.1861285102525145 100 85 90
-0.3300438423640141 -0.0131457764310956 1.2086402090506667 187 188 183
0.3645184147771127 0.0319376375745929 1.1742179238423758 154 146 133
0.4508034730166413 0.0403202875361830 1.1859149329195806 89 81 96
0.3626024292263942 0.0361798443598409 1.1738530694493288 119 104 97
0.4539926030906233 0.0418758551541998 1.1889429913565324 102 98 87
-0.3187605801293235 -0.0034295773886543 1.1323633876823926 164 169 163
-0.3214577738088382 -0.0033951960274530 1.0507027684710399 194 193 199
0.3406189643995254 0.0383248137797766 1.1670880493701192 93 72 89
0.4505998449191611 0.0460170263901510 1.1862621760294010 96 84 94
0.1155087048568181 0.0289785370814270 1.2849835949425028 101 96 93
0.4574348677332156 0.0520437225118949 1.1881126149048855 95 92 99
0.4406424245413765 0.0528308487214105 1.1809215760433176 135 117 113
0.3371704276256451 0.0481872031480976 1.1649129743115161 94 85 90
0.3592122927451192 0.0514377403471379 1.1685731489299611 101 89 103
-0.3306940783223303 0.0147196942170801 1.0461987309746386 179 183 169
0.4537789669101492 0.0587100361582722 1.1852986590999195 116 96 105
0.4504960116532625 0.0600714062881302 1.1853293650513717 89 81 92
0.1302370952699897 0.0455392320496916 1.2849561311517064 173 165 154
0.4500890073453319 0.0627836201514324 1.1834913591631366 98 86 96
0.3220220325217306 0.0582623673174107 1.1600953265902809 166 175 146
0.3358090441363952 0.0587433915996088 1.1623432333328554 178 177 157
0.2138338867996144 0.0577117257346147 1.2976230522008028 148 134 125
0.4541317979526460 0.0729760008808815 1.1815768451722470 101 93 90
-0.3226686693568721 0.0357531832317583 1.0440070040307639 199 192 199
0.3631980726582914 0.0700194155973380 1.1659802245333368 113 95 95
0.4538859599713716 0.0758660085587345 1.1827754107350428 96 82 81
0.4389981927642327 0.0752767381000654 1.1792466306955336 86 74 84
0.3453340377601006 0.0720979196949115 1.1623811574468239 162 146 133
0.4242827359644379 0.0764973622856449 1.1768346176787663 131 119 107
-0.2486542417720018 0.0482892803862439 1.2140334758961113 107 97 98
-0.3256780286262501 0.0611270674149761 1.1978589745945063 90 76 89
-0.1431778598703584 0.0689265654869479 1.2390808447284525 95 115 150
0.4434324978474711 0.0926187422367897 1.1765560383513596 90 78 78
0.3599827850181808 0.0899452246943034 1.1611552337885513 115 87 76
-0.2453445315524501 0.0758348697422438 1.2097064340751120 95 87 98
0.3559869569831945 0.0941376580282480 1.1594235559342427 102 89 80
0.3521901944625463 0.0952135100546980 1.1575706256230032 106 97 100
0.4194484951289663 0.0987419308268350 1.1690451667308872 112 112 114
-0.3108884815756721 0.0755634676265452 1.0952960852028679 149 157 159
0.3584842529413589 0.0996754293284166 1.1589385866216930 153 131 110
0.0709730630582220 0.1029566435856614 1.2580456688720945 73 83 85
0.0709907373233351 0.1029455577751909 1.2578019232703845 73 83 85
0.0711327386948385 0.1050002041946721 1.2594397454682351 145 147 133
0.3407996209971547 0.1111374721978870 1.1537648580871525 80 67 61
0.3677144162348437 0.1178132631984316 1.1577667934469567 124 115 110
-0.3209446472898548 0.1062811859651331 1.1886878012340496 89 81 92
0.0735588342801726 0.1240556672901795 1.2550139809395229 158 162 161
0.1319483076513076 0.1269935176314911 1.2712408073624963 160 170 169
0.3989360189549028 0.1254501895406738 1.1562503459358753 157 153 142
0.3814554860743610 0.1278227472488384 1.1580463989446403 91 89 94
0.3596995247821544 0.1273010621629702 1.1547729031520759 97 83 83
0.3476146288414397 0.1296488282938500 1.1514003737748866 140 122 108
0.3564903737734611 0.1300265024778090 1.1532851005998608 146 133 117
-0.1842125605786500 0.1288013991174915 1.2109614778674023 80 72 85
0.4325568185275060 0.1427871842602843 1.1661697872595334 79 76 83
-0.3502710283553430 0.1257350912667669 1.0218790309393009 114 98 98
0.4359332322505062 0.1499597665407705 1.1653281550704544 77 71 71
0.3992558352428713 0.1509285555510974 1.1626324041267160 53 66 121
0.3639250342919700 0.1515181126251390 1.1501805368061162 91 81 80
0.3641392082157354 0.1514280650863215 1.1492984920165770 91 81 80
-0.0089890041496432 0.1550758063254072 1.2142493392266334 80 96 129
0.3596206565523974 0.1529397677244076 1.1492304527869213 82 81 86
0.3412085676023765 0.1533623032233046 1.1455126571840148 89 76 94
-0.3210039800717306 0.1573252329498414 1.1785814714949077 73 71 82
-0.4140981108768081 0.1475914804263326 1.0054747408228975 120 95 114
0.4287982669573137 0.1631478659258154 1.1583445314141012 90 75 78
0.4362226068215288 0.1639478306464864 1.1626258295994167 89 84 81
-0.4142427034281307 0.1501707889765631 1.0050326668632255 122 100 113
0.1464263287976884 0.1735626356740526 1.2643592633544851 83 79 80
0.3444335579955499 0.1636273972018096 1.1452601772537629 100 90 89
0.4363463594149407 0.1694748882823917 1.1613498979169266 91 84 76
0.3597275828906567 0.1696382028204490 1.1465846697061501 77 69 82
0.3638235666813340 0.1780627492289319 1.1445312781782722 129 116 97
0.4517105296182929 0.1837359759010139 1.1596523466485413 79 74 78
-0.2455692532679578 0.1969635370721588 1.1862913331432352 139 143 144
-0.0186606032468552 0.1969664501872794 1.2046937984723882 27 46 44
-0.2444806175787151 0.2057349199874998 1.1842464383103415 69 71 86
-0.0275867434100643 0.2064181664447527 1.2011138626495792 128 153 158
-0.2445253326444721 0.2114820939657853 1.1831181721283377 70 78 81
-0.1680397088648375 0.2139893572344669 1.1972040943719842 67 71 80
-0.1684137322735813 0.2162138030316011 1.1965266376225387 121 130 137
0.3374385441063683 0.2004703040087594 1.1351406831795408 90 85 92
-0.4352207802964038 0.2067483568761452 0.9886354614108928 153 142 136
0.0756951037612887 0.2319626097044958 1.2355649160454216 121 131 132
0.0875010403943711 0.2323955338702755 1.2380428472065022 119 128 143
0.4582304618017445 0.2136444517408873 1.1543374430154307 74 83 82
0.1619842654677516 0.2351431328496385 1.2523366132571223 119 131 143
-0.0587812569338064 0.2273384187323398 1.1384859544412129 115 132 152
-0.3272738094411972 0.2469577142908914 1.1564997339960488 127 136 151
0.3382308086773478 0.2218314277507695 1.1278450666465643 92 103 125
-0.0033186787751175 0.2363536619511415 1.1180305453791717 63 78 101
-0.0248754848173553 0.2369845391163512 1.1033854128466782 54 70 95
-0.7222800029775650 0.2910455894735035 1.0761313399489849 243 239 228
0.3816083263518734 -0.2264085918354916 1.3101728567748756 104 85 200
-0.0454950438974647 -0.3205761312992790 1.4485784471517662 255 252 255
0.3744107421701927 -0.1847214079433775 1.2875938754066585 104 93 189
0.3767212771946378 -0.1737343121042275 1.2804188296662182 60 79 121
0.0348728414397122 -0.2447448451821378 1.4154296170333402 159 140 170
0.4069349398208585 -0.1478423762907101 1.2683559776906161 57 78 95
-0.0635661287930711 -0.2294353597700254 1.3969885549315628 119 128 169
-0.1073095996074934 -0.2281765609406615 1.4201810138221762 206 202 203
0.0330701599429769 -0.2008179228555098 1.4002336912089270 185 194 203
0.0391204774513030 -0.1974279671856223 1.3993916808761355 177 187 186
0.2000293360877862 -0.1831564299374311 1.4543134598956551 94 105 133
0.4168944848669043 -0.1222373362853504 1.2537269909887521 91 109 129
0.3540248402700137 -0.1148827184567720 1.2349571717642593 49 62 115
0.4391812743550635 -0.1051569427767243 1.2446970140293911 231 255 254
0.4058485169229496 -0.0941656210221185 1.2053717533083002 133 118 111
0.0087914700113441 -0.1600359484215090 1.3966455435702225 148 175 204
0.1244231844766624 -0.0922127990031431 1.3597568029902787 67 81 108
0.3870991964969476 -0.0447966433024368 1.1864808623362946 142 161 176
0.0069117232200725 -0.0874847763469487 1.2923990658384383 75 83 96
0.0101023795438739 -0.0754308306976496 1.2608291322433789 109 104 111
0.0082915937868605 -0.0760159149018983 1.2827777613628781 72 90 114
0.0726666668952312 -0.0671389532039797 1.3013330539202981 74 86 108
-0.3214183312729800 -0.0933720724393055 1.1750159071908524 164 173 172
-0.3003786722393446 -0.0904702943625083 1.2305457170963832 184 184 176
0.0777193325986938 -0.0278183270865637 1.2908892436489250 73 88 117
0.0726806306677805 -0.0192230379149112 1.2767097251445303 166 161 141
-0.1728209359304596 -0.0212723946031277 1.2344146861214458 138 129 124
-0.1938979963133890 -0.0217093786256670 1.2305418638612053 140 131 126
-0.2839837651111282 -0.0244213819468853 1.2141125569857663 138 125 119
-0.2769974183349658 -0.0240401978878317 1.2153589817335371 140 131 122
-0.2981246816328109 -0.0247939956004958 1.2112872611846606 134 130 121
0.2326803814790003 0.0143453365305506 1.3084243806692817 148 146 131
-0.4397651374887012 -0.0228559860347440 1.0331721809620169 188 199 195
0.3926164296244372 0.0307574305178560 1.1873683871685816 61 89 111
0.4272826161002453 0.0368245888484010 1.1844414933506549 175 181 171
-0.3219761843692683 0.0024302317526561 1.2090779631730770 120 106 103
-0.4122625730324800 -0.0004007896800415 1.0351967327940585 188 191 196
-0.4120886883566044 0.0087966967482566 1.0337901392366815 134 127 143
-0.1686358937443909 0.0228287664587245 1.2341874617699888 129 119 128
-0.3198232422159192 0.0175778181829378 1.1331056470671488 106 101 107
-0.3204027076778791 0.0321065638339592 1.1309338012142716 99 97 98
-0.3202503004881319 0.0514124513368001 1.1310438197296044 169 163 167
-0.2623152103861475 0.0583789175051030 1.2103890899203475 117 112 116
0.2227476625585484 0.0814214329780343 1.2961933521991427 155 164 147
-0.3221859880783528 0.0599286416020101 1.1982283881129261 166 168 165
0.3241320054381345 0.0818014280110152 1.1529050940817811 74 72 77
-0.3305874808891194 0.0794044052629417 1.1876066786439505 88 90 102
0.4019876350732171 0.1121022001124717 1.1628297964837959 113 100 94
-0.3111829121825868 0.0995730781878666 1.0896604073499918 108 107 105
-0.3256057008820951 0.1123496443489505 1.1686714590648974 136 141 137
0.1537735203157444 0.1298684570865755 1.2703166228066438 151 151 153
0.0665745992997695 0.1252327053521724 1.2228988782360137 162 167 160
0.1246651876757333 0.1315463221161553 1.2674676663198301 112 104 102
-0.1896803185323351 0.1259790103961980 1.2058572500447531 171 177 175
0.3379132893348096 0.1326431173988429 1.1482410979639757 103 87 98
0.3671037775846787 0.1344164139405437 1.1546728633917758 116 106 97
-0.3194878925473248 0.1332808526855288 1.1110087549763128 82 85 90
-0.3846574380069984 0.1271858335160180 1.0204361634799768 55 60 115
-0.4078943413613060 0.1385924136702139 1.0082325125120863 188 183 177
0.3676752064913899 0.1607979932921906 1.1492745809981357 108 94 91
-0.3289565979283791 0.1791129465072893 1.1705567749690686 155 165 167
0.1464722351358330 0.2009100988949370 1.2590679222174217 91 85 87
0.1307703544944691 0.2086229635451231 1.2541403352786717 134 146 144
0.1301527954564670 0.2167688532754189 1.2530802777253258 94 86 97
-0.2322362892219227 0.2217128702943609 1.1876699522178038 63 79 95
-0.3939576364942175 0.2166147758802585 0.9996430813401974 105 104 118
-0.0561040455663185 0.2379250421876348 1.1392147883736066 110 133 149
0.4008422942160945 0.2329338605338123 1.1388978896638728 134 150 147
-0.0258880050325467 0.2406647699629142 1.0847809309209531 71 85 112
0.3942815429183898 0.2375117615553808 1.1378290748241746 125 137 151
0.3817706338037782 -0.2425994329108162 1.3125017422982956 113 116 221
-0.0283901623202399 -0.2847844217574602 1.4486371048717872 121 125 154
0.3811474572101938 -0.1913688918081247 1.2961608372990068 105 125 150
-0.0511300165636664 -0.2726617098807065 1.4266032907233659 96 98 137
0.2771539865583331 -0.2137637703237631 1.4445331387206271 60 58 133
0.3648894315690585 -0.1509635738979456 1.2618098670393623 162 181 211
-0.0609811523016743 -0.1927449956225890 1.3733298165722203 103 118 157
0.3843941714794440 -0.0797839427068707 1.2047940284958822 116 98 96
-0.3212618372527578 -0.1097515355765622 1.1572528105240287 156 154 157
0.3600690655829587 -0.0414938354235966 1.1747391800433391 87 100 108
0.0736710214352608 -0.0609504818448869 1.2996602542978946 72 87 116
-0.3223644805187573 -0.0713110441594425 1.1665737572811803 165 174 173
0.0747557310250468 -0.0403712236563752 1.2948779426875496 83 103 127
-0.2791537030760935 -0.0621900642089406 1.2323396226677199 173 173 173
-0.3068598049113191 -0.0536553628256677 1.0575174704435841 161 147 136
-0.1960351662819761 -0.0518872087017778 1.2563713772145293 62 76 103
0.0783650661510677 -0.0315689915794565 1.2930358100808863 168 179 181
-0.0796016989952672 -0.0247926263195299 1.2276209907072868 132 125 115
0.0933385059934327 -0.0125577671004520 1.2813209339205298 122 112 100
-0.3296880999831189 -0.0184856107201844 1.2091368577984525 185 180 161
0.2559793876059686 0.0239674513419628 1.3118619608044904 97 91 91
0.4080826945155362 0.0483601287852007 1.1875425014386862 64 87 118
0.2368317976640351 0.0507386582825011 1.3074478499418543 76 83 93
-0.3089186593800318 0.0613759234786563 1.2025006306205248 117 118 123
0.0696191822830319 0.0842324455157020 1.2668187684876466 109 99 107
0.0661037761466200 0.0900529010428820 1.2322753104305122 110 113 118
-0.3303872240902899 0.1195183978545662 1.1732355711658597 128 134 130
-0.3082689749283739 0.1363024901332959 1.1885030223044331 94 93 88
-0.3289956519014744 0.1396061584631776 1.1730673473237838 83 83 95
-0.0045756494763759 0.1456136519328219 1.2181244305201877 78 94 120
0.0014144661770177 0.1548407945844844 1.2157140555246020 75 92 112
0.1463764531085407 0.1670455883452653 1.2655477418018806 115 100 107
-0.3207055791923181 0.1456723278665585 1.0218333608765371 120 102 114
0.3644918020183621 0.1711621861313111 1.1462744989099982 102 87 84
-0.3209742984305849 0.1622736510056865 1.0189518530892361 126 110 123
-0.1387691551346754 0.2074655954765005 1.2111328079814190 97 130 163
0.4365910999555192 0.2124197818117603 1.1522916642179053 58 64 60
-0.0559292332717942 0.2353116829103835 1.1404920352932870 116 137 154
-0.1592710394134738 0.2541764465114136 1.1423275099563404 101 113 135
-0.3088496403430719 0.2389360467532013 1.0016247549435735 70 85 108
0.1897159078346920 0.2653959894934037 1.2548723254715126 35 54 69
0.0952513180576031 0.2629106587871988 1.1299706924048003 44 55 61
0.3774509744767353 -0.1909930988380623 1.2928160277782117 82 81 159
-0.0323064927417082 -0.2401818917307415 1.4271208588636659 72 80 101
0.0336053179755002 -0.2241210284300458 1.4662080529720463 139 136 143
-0.1019836758101165 -0.2258459347654400 1.3958900892255812 142 147 166
0.0379245304903405 -0.1985801387176979 1.4362225568744378 76 84 103
0.1898616500981090 -0.1823420041239057 1.4558070073604412 67 93 126
-0.1055049076511358 -0.1961668277546918 1.3759863031106281 181 185 197
-0.1021374616125588 -0.1875777130524918 1.3724075085661038 180 189 198
-0.4253376823871872 -0.1770498130515259 1.3700653829146228 189 183 195
0.3831130451962264 -0.0421656457622354 1.1839736784861115 115 124 155
0.0987947199730837 -0.0733027561132372 1.3023530869987698 179 180 174
0.0084135398031760 -0.0778919837373537 1.2761002557593344 160 162 161
0.0484770100936012 -0.0570573606726965 1.2709427450810575 74 93 125
0.0500487495440396 -0.0356919040508700 1.2567441128335086 73 98 128
-0.0818085665496943 -0.0394952185595198 1.2276336178126259 86 106 141
-0.0588771977012038 -0.0232186774424637 1.2230623276329473 139 129 117
-0.3079674257707206 -0.0341240053434713 1.0783209622974139 111 108 117
-0.2007590817894991 0.0200436620362457 1.2277557591655304 119 123 124
-0.3082485321137452 0.0164282482524599 1.2113943201538184 127 128 114
0.0646804518789925 0.0561445226872260 1.2717009250463536 122 104 100
-0.3071175045034281 0.0434992193384921 1.0569251075112918 167 179 177
0.3308510081511643 0.0737129555432735 1.1499700982344592 96 96 108
-0.2935213866739756 0.0537431963823648 1.2127152675109343 133 157 181
-0.3307805329345593 0.0547159479438225 1.1913179814686277 103 100 107
-0.3171290898787074 0.0630341188279268 1.1159300314116682 145 151 147
0.1564916929139074 0.0903872641152160 1.2814234025152287 165 168 161
0.0647068420786713 0.0925509066660757 1.2289838147494099 160 169 176
-0.3195600195254326 0.1095630150309834 1.0327064199057128 182 179 172
-0.3058756158782657 0.1115091409297923 1.0416518858604229 160 169 166
-0.3113864700350196 0.1147002704759591 1.0692209182748234 85 90 94
-0.3299715827910328 0.1277570334652724 1.1714594049646396 138 148 150
-0.3194386982914873 0.1264207712156404 1.1299866226695994 71 82 88
-0.3068753919577613 0.1290937934756379 1.0394135916255951 153 164 158
0.0653847016770547 0.1574571629231547 1.2522143083507520 98 93 100
-0.3301292261279929 0.2066498028321585 1.1612271012421931 62 59 78
0.0250904310968827 0.2148487697700330 1.1742039258966308 132 126 152
0.1554454834433268 0.2644182205523487 1.1990817355334988 102 120 134
0.0755086401090280 0.2794388141684904 1.2163306488538059 29 35 49
0.3821465167750241 -0.2187326821929851 1.3078808153208603 109 113 158
0.0269905433679723 -0.2315310567157595 1.4030909268189820 255 255 255
-0.1138555549438102 -0.2348486439555288 1.3767979304084048 255 254 255
0.0762209814673874 -0.1855658050828130 1.4347713860364071 69 85 121
-0.1021569996903498 -0.1792723424496554 1.3687252569174087 174 181 191
0.0311363779906655 -0.1018480892382116 1.3476257795689712 121 148 178
-0.0264285071367438 -0.0322046993933230 1.2376989436705406 94 112 136
-0.0355825818721630 -0.0326010800177918 1.2345451492246300 100 115 136
-0.2856767425451934 -0.0412976371697541 1.2290733121959794 67 81 94
0.4394954801421245 0.0148585742740705 1.1903230933295497 116 104 104
-0.3269639946029256 -0.0002226669600255 1.0501097927424878 110 109 125
-0.4443747756360277 0.0126615759369964 1.0278339679921589 191 200 207
-0.3272199814671788 0.0432986094304981 1.1828215698901485 159 162 169
-0.3108804302673662 0.0514263641160661 1.0600051953848117 174 174 184
0.2369952612533968 0.0909373924902828 1.2976668219023675 67 85 97
-0.3156868616484140 0.0696819607416061 1.1062304521960959 87 99 111
-0.3299687401976310 0.0855128110407180 1.1902622051088829 177 184 176
0.2108183114754318 0.1309702966498735 1.2790422062152405 146 151 147
0.4007247865203279 0.1425661700939604 1.1627892441447947 57 75 99
-0.3215178098253438 0.1472207433625890 1.1825543060707480 148 156 158
-0.2220718406200615 0.1576559488453123 1.2030669446380986 106 124 148
0.3495004548169864 0.1626273629858676 1.1430998460964723 156 161 139
-0.0474983229669686 0.1942451685259692 1.1882480343196458 109 108 106
0.0990085096522754 0.2150129284820439 1.2542252678867796 94 127 158
0.0913370308988061 0.2651274555864278 1.1425612634819418 44 52 65
0.3876568657413867 -0.2051558168380205 1.3028853634694555 229 253 253
-0.0494938204268463 -0.2982280812421989 1.4312994280456623 255 255 255
0.0329576434828688 -0.2358887560561133 1.4008902825922955 114 129 150
-0.4420809481078669 -0.2356857856942972 1.2920054444431031 197 198 202
-0.0581659744697294 -0.1784576074571690 1.3568725597330578 98 114 147
0.3367101113451609 -0.0246442286941498 1.1773315863957590 186 173 139
-0.1521707813198903 -0.0662234835763555 1.2667428305642898 134 135 137
-0.2770853154790324 -0.0453740964690717 1.2303034724553110 173 176 183
0.3369935851879059 0.0192619966613648 1.1699446010244163 179 179 171
0.4031361891233092 0.0277982497388837 1.1898062219007763 129 148 163
-0.3104713929890155 0.0041312763879817 1.0805604022198074 172 178 174
-0.3085841608061770 0.0124544818035409 1.0778685906918084 168 172 171
-0.3195747983869888 0.0240658788647452 1.1315856778574160 100 94 96
0.3237547651338480 0.0612688996669940 1.1597969284839815 179 176 169
-0.3196541276534575 0.0409608198262644 1.1286232839503263 117 106 112
-0.4022617351354831 0.0393623190040079 1.0262032336190157 181 183 178
0.2239391894589758 0.0791240964053878 1.2967051062365595 156 158 157
-0.3194692216689321 0.0566059946455220 1.1257757245886377 111 104 112
-0.3197900416864207 0.1081693663349919 1.1156150287979369 103 93 102
-0.3218992910846497 0.1184496548079654 1.0304127020735190 185 181 178
-0.3220827995693759 0.1349631313385198 1.1216228185516597 139 149 141
-0.3102137814986231 0.1315885401037512 1.0564873340793077 148 151 144
0.3341574758099841 0.1467259191561891 1.1447434648695629 161 162 156
-0.3240682513031242 0.1558020276927620 1.1784078241374196 90 88 91
-0.0267643620053685 0.1590215700852175 1.2103130269233615 103 122 154
0.3968820656494841 0.1647519116109210 1.1590749833574692 120 151 169
-0.3111485069724415 0.1566977764124211 1.0518937323871664 146 156 158
-0.0302582474329937 0.2018486904907545 1.2006635411542375 90 85 91
-0.3215692133137437 0.2015446540663227 1.1089269716672716 113 122 127
-0.0141651312568617 0.1725484433080759 0.9376022089811517 52 53 57
-0.3031263608918522 0.2003735141209025 1.0299260292852028 123 137 148
0.1513567819373014 0.2397526521945691 1.2030763337824135 42 52 64
0.3819596351249310 -0.2324219103800103 1.3103385853915754 89 100 130
-0.0340297678643585 -0.2878423357656338 1.4529039112617992 109 116 145
-0.3748608924652329 -0.1864241837827117 1.1392047191782388 177 192 221
0.4605525066454202 -0.0344726860535026 1.1951186100044402 165 153 131
-0.1708833942642750 -0.1036358269198585 1.3068399076177140 84 104 137
-0.3471066220837729 0.0072957885649268 1.0450709620462544 111 110 128
0.1315282338371466 0.0353926672551320 1.2891327257891072 131 108 100
0.2218632979158208 0.1381993044948499 1.2784678504694964 121 110 106
-0.3807508311686804 0.1237634729637517 1.0206388707543794 147 161 172
0.3683639307251596 0.1900017472646353 1.1432435696101069 132 129 114
-0.3057321322995585 0.2125374899654507 1.0091675501920248 143 154 158
-0.1697792304277676 0.2299769243127063 1.1403602756048952 45 57 69
0.1560237279206052 0.2427684858182797 1.2147536015794056 41 51 61
0.4097248112710455 0.2434446803499356 1.1395132501837735 70 81 83
-0.3229286619029466 -0.0748055392116377 1.0687801452408137 98 111 155
0.0639150733855460 0.0168382081595388 1.2801911888008572 115 92 98
0.0638926152156611 0.0496414912392295 1.2740502348068918 132 121 117
0.0633159841809092 0.0660797269344892 1.2722097215300574 116 102 102
0.1085733022878547 0.0726273540622973 1.2815022663491711 86 106 139
0.0633269972511012 0.0819129039507756 1.2696303943314720 115 99 99
-0.0426813949770666 0.1229565351416341 1.1967190062684914 135 123 99
-0.3177396166922243 0.1953566687945164 1.0847870973381282 116 124 126
-0.3808485781087576 0.1935865229103013 1.0026026190902229 176 166 154
-0.3230584647576276 0.2431185078284789 1.1205241819342069 42 56 67
0.3974677589519230 0.2271570172496706 1.1348937471927161 93 93 101
-0.2315580974278156 0.2680026637321284 1.1559648245801386 44 57 65
-0.0811202467620565 -0.1877728176917757 1.3635985327092388 97 102 132
0.1514933089350477 -0.0878307626638162 1.3355892330831316 65 82 110
-0.2906070235673248 -0.0612821554055192 1.2318340929987872 138 166 187
-0.3328913530855739 -0.0425269899208243 1.0562319093717283 139 138 143
-0.2876479118090589 -0.0441142374252455 1.2247084623406774 135 164 194
0.3420905022149586 0.0135219305321697 1.1723329916588507 114 85 79
0.3955597915909976 0.0278879298885604 1.1879631884339972 120 140 151
-0.2533942880654280 0.0217673423516133 1.2178408059039141 104 99 103
0.0775015873785934 0.0761497268371072 1.2687467707401581 155 155 147
0.0743993197386749 0.0957872013514885 1.2624177156608032 147 147 139
-0.2665976819737788 0.1341512560034467 1.1916279630978028 139 139 139
-0.2369207066023637 0.1342266553954225 1.1988059601359036 132 134 133
-0.3580901648901325 0.1245731703516312 1.0195591102978276 180 169 167
-0.1757473413568372 0.1421899221756958 1.2093239066141004 107 100 108
-0.1474247177157111 0.1453553395202871 1.2161723807111064 85 95 105
-0.2358041598979904 0.1495192107318056 1.1941269181326042 144 148 149
-0.1613083378823899 0.1510573878621325 1.2093863363471551 151 155 154
-0.1757168498147894 0.1598835372813675 1.2055431072928051 92 85 93
-0.0020618240217373 0.1698006590959205 1.2109394302735812 100 84 85
-0.2467058128289391 0.2436314877217772 1.1345363097438377 100 117 133
-0.2745478570800384 -0.1724815740586925 1.3018119803560633 255 255 255
-0.3214221131770831 -0.0977442122764657 1.1623195225907310 163 169 167
0.0773382531156726 0.0261289265107592 1.2786702656727398 164 160 151
0.0777898757109263 0.0267324640874137 1.2771874218686650 164 160 151
-0.2866583181818838 0.0245671156928148 1.2088706048376612 144 151 179
0.1379789639391630 0.0517435406180202 1.2854412673428759 140 125 118
0.0780789035178970 0.0595748170627892 1.2705836158413486 162 160 147
-0.3354147845091671 0.0454985101598244 1.0381681578091517 151 145 147
0.0852003529005864 0.0935685383854773 1.2804565803297767 80 96 112
0.0852003529005864 0.0935685383854773 1.2804565803297767 80 96 112
0.1382923412836084 0.1704539531829541 1.2636616604411011 79 74 78
0.2295690663791032 0.1798542582479601 1.2780514715297890 132 136 135
0.0064231965835442 -0.0693094869746056 1.2607882857881056 168 169 173
0.4057484304996414 0.0743251202053408 1.1796480944212280 91 105 116
0.0577834789382480 0.1142171551070224 1.2218091413963856 161 166 159
-0.3915679541201552 0.2137760039406551 0.9793586428633253 183 174 169
0.2142806785869816 0.2621276565544404 1.2283372287707714 104 116 138
-0.3363287099623192 -0.0818973018632646 1.0680023489897541 94 118 152
-0.2260800112401212 0.2075757511380538 1.2061022410902624 32 47 76
-0.3262740665202150 -0.0673236995613741 1.2044249655201733 83 103 136
0.0700610114752453 -0.2205436505692104 1.4510962608365194 255 255 255
-0.0711180925244785 0.1872589864824585 1.1923314948042023 145 146 148
0.2742367341656808 0.2625229691968768 1.1765894389470908 57 75 79
0.3985211537336359 0.2578606793288424 1.1298610905294300 69 77 100
-0.0547287603942754 -0.2856954877234158 1.4318433374477395 71 72 136
0.0356888532072721 -0.2153536917095470 1.4029502979179156 101 98 119
0.2106134879077848 -0.1897250574566596 1.4716362323163277 78 84 98
0.0333904224592216 -0.2191324584706608 1.4591730807713001 185 184 180
0.0306825832272377 -0.2183643262955063 1.4693932358320281 159 154 160
0.0311675206878455 -0.2196911593228204 1.4820869536393322 161 166 159
0.2132569213090671 -0.1748994991895702 1.4513807401972889 141 169 180
0.0897212140814031 -0.1813001009741629 1.4311566557510040 39 58 91
-0.3934313057202087 -0.2319546333660534 1.1637972037105864 148 134 229
-0.4042792827110906 -0.2117228765952513 1.3053578838625959 140 134 160
-0.4250028137211270 -0.1902137552620573 1.3431756006616775 255 250 255
0.0342450686719683 -0.1062740159923587 1.3159071850980664 150 179 213
0.1953005434221267 -0.0610114213656461 1.3423088792994309 104 93 97
-0.0197684635354258 -0.0827640293521060 1.2492888639889392 167 164 157
0.3659706791417967 -0.0195568275265103 1.1844664592455607 78 71 61
0.3438935918568469 -0.0202531292226717 1.1790193355624365 72 64 61
-0.0306871748686527 -0.0645702475949367 1.2580367767286185 81 93 109
-0.3624924480569404 -0.0986414146397232 1.0708652047135141 122 124 136
0.1498210923797592 -0.0296647337974169 1.3054675058210019 74 80 92
0.4210887843262407 0.0105736840565401 1.1869196271555669 100 90 89
0.3404980199149488 0.0074590956401341 1.1734231644138537 90 78 78
0.1246077209085939 -0.0171261439924668 1.2888677205282537 170 160 133
0.1337611367410185 -0.0116432323267772 1.2906692293099191 108 89 85
0.1111693433893266 -0.0106469170440910 1.2850399439781970 155 155 131
0.4354742401586477 0.0316256391357693 1.1864643740190663 68 64 63
0.3662089912285137 0.0320678064143088 1.1757117880349812 87 76 90
0.3592942258150336 0.0403070977410629 1.1698561697351400 72 70 75
0.0346545310862955 0.0066276176342014 1.2411818781339894 108 101 85
