ply
format ascii 1.0
element vertex 698
property double x
property double y
property double z
property uchar red
property uchar green
property uchar blue
end_header
-0.4351293651102097 0.0302825856581619 1.0247716535074383 70 72 71
-0.4349762501635641 0.0301919503739930 1.0244381148729553 70 72 71
-0.0153828846671159 0.0368727652912332 1.2355979683741614 105 120 141
0.4299723936223770 0.0306410512294970 1.1858834641105871 120 95 91
0.4297176846044248 0.0306406520060495 1.1854413248695843 120 95 91
0.2859657906299484 0.0394891323854232 1.3162573995981421 99 81 77
0.2605853218393012 0.0411137852422079 1.3196052492165298 22 25 30
0.5413950284072707 0.0387042008694352 1.1727964140952294 25 42 49
0.2863674877043322 0.0559674279886621 1.3132313085040612 92 78 77
0.5350914572938462 0.0505144005024267 1.1598395433198574 220 239 253
0.2609793005986042 0.0615849481771991 1.3184009217723980 24 28 29
0.3161882191160734 0.0575568332729211 1.1875540474613318 134 133 131
0.2862609272891909 0.0725074060846465 1.3093852888995237 91 70 67
0.2609808416712719 0.0798765488517537 1.3148342736254492 21 27 27
0.3865000193117174 0.0749210881736872 1.1714097537635340 50 53 60
-0.1235907293238668 0.0912611389037645 1.2335035652976098 53 62 77
-0.0436868548338820 0.1233386656613725 1.1988572589068296 107 92 71
-0.1395429160349732 0.1424836529982142 1.2239921106737159 60 69 64
-0.1237822673775642 0.1601666506425661 1.2203707321988613 58 73 92
0.3414225840103969 0.1633656454484352 1.1429094038807956 101 80 77
0.3636417832405894 0.1637958815394582 1.1479714749222882 93 80 71
0.4313040972283168 0.1668687415242021 1.1598049639790002 106 86 79
0.0902682785545923 0.1754763509067141 1.2607967132751525 52 49 32
0.2613939310317721 0.1821017754827575 1.2935426342914618 10 17 23
-0.4348674103917368 0.1484623388670726 1.0016796362305174 79 67 55
-0.3233848104231650 0.2084539719113047 1.4085915265356084 232 241 240
0.2616175110321264 0.2127457268487714 1.2876527785181200 14 21 31
-0.0014730359725538 0.2112593256172292 1.2032109128647552 86 75 71
0.2430776915907508 0.2279367694158643 1.2749376905468772 10 10 18
0.1666911292978807 0.2257900507922195 1.2631374193353822 62 55 37
0.3437873075212468 0.2258494548613080 1.1287317644868529 83 83 95
0.0150564150343158 0.2297701282263765 1.1944813680102313 101 123 144
0.2252868429558319 0.2431176613353341 1.2140091017371384 21 41 48
0.4085119872088223 0.2447188851438297 1.1452748830516586 33 40 50
0.4085119872088223 0.2447188851438297 1.1452748830516586 33 40 50
-0.1800946364202589 0.2335322068178266 1.1592107096097561 13 15 27
-0.3067219153513010 0.2127283004100170 1.0096535035930465 143 154 158
-0.2862364630407384 -0.2075074035801791 1.3759230476468141 51 60 77
-0.3493506078477219 -0.1680394401431586 1.3691527874027221 240 254 255
-0.3740171308462851 -0.1003934124161624 1.0656236403991173 87 106 149
0.2767408576567036 -0.1463571070844212 1.4554517022685387 250 237 218
0.2858039612149451 -0.1439610376983934 1.4388653381774998 80 81 111
0.0666464100479116 -0.0582025911643618 1.2919596601586700 55 57 78
0.1575725349363536 -0.0464853832281856 1.3115119208029478 146 147 139
-0.3895031120708400 -0.0198233763914663 1.0405404060954411 153 148 128
-0.3720355315060996 -0.0197907216413562 1.0451797859471246 154 147 137
0.4383970206270414 -0.0361787235276042 1.2004049774218637 163 153 118
-0.1025349531997028 0.0115971592885693 1.2428643732833253 82 64 60
-0.1036628782811657 0.0272069514227205 1.2375323296184113 93 78 75
-0.0243055272082877 0.0249346044781583 1.2337226931166845 57 78 105
0.4198987731613939 0.0209929416005557 1.1859048457844459 143 135 122
0.2293509869811210 0.0623586189628546 1.3006865245586374 138 135 128
-0.0242673411370450 0.0634996872686106 1.2295614105330652 61 83 106
-0.0878562768196143 0.1323603780180629 1.1934572340319656 137 133 132
0.3134999729655173 0.1368101370012358 1.1899630145683575 36 44 46
0.3135992628405938 0.1367100232627884 1.1905168311534899 54 53 48
0.4058117439208904 0.1365453751844397 1.1662627918117072 27 33 23
0.4058117439208904 0.1365453751844397 1.1662627918117072 27 33 23
0.1660922249053681 0.1567330353388126 1.2732817875256324 54 44 34
0.2622912329385118 0.1626681817522312 1.2992082459565066 19 20 24
0.2616519490094834 0.1619010908505074 1.2971063508752680 19 20 24
0.1528510782783694 0.1611970034422328 1.2673089913246431 123 115 112
0.1527512812590811 0.1609430842947139 1.2669507559786279 123 115 112
0.4649588957597711 0.1760808853791217 1.1619462052838323 121 123 122
-0.4132489906339198 0.1742623959767526 0.9994777472184315 136 120 120
-0.0530236569487566 0.2077818081208651 1.1796999878108927 122 132 142
0.3640532504691855 0.2167659612271937 1.1389059268935229 125 122 117
0.3473799807085469 0.2158745144790054 1.1307499615411474 126 128 125
0.3130348062229028 0.2495192760165589 1.1718488508337037 33 35 58
0.3014764220747413 0.2627286036269667 1.2363255145474650 18 24 40
-0.3634738433761415 0.2280135361605929 1.0011469389213683 146 156 168
-0.3954329403279183 -0.2219788189345094 1.1597397778868332 63 70 96
-0.3945152459748249 -0.2206564111670545 1.1560280973916106 63 70 96
0.0348410395383211 -0.2367717463442842 1.4102838154965600 46 52 64
-0.3643941609251283 -0.0924310931923267 1.0650912976168625 151 150 148
-0.4579020702221772 -0.0785026797178075 1.0401781728662114 255 255 255
-0.1610742461495648 -0.0889749303013264 1.2808954122549085 40 55 86
-0.4182970118203396 -0.0441964662669724 1.0406427816361694 85 76 79
-0.3443788804246560 -0.0427279076835133 1.0587381631878763 76 71 68
-0.3443788804246560 -0.0427279076835133 1.0587381631878763 76 71 68
-0.4162766861177146 -0.0101869809895193 1.0361478057288551 76 78 77
-0.3908994678176809 -0.0073273147733350 1.0468481872335040 50 61 93
-0.4262463098488345 -0.0033259194187960 1.0329846752133029 150 155 149
-0.4262068790404470 -0.0033170611406606 1.0329938670281100 150 155 149
-0.4365852498969441 0.0045683119094169 1.0289303793692468 84 80 94
-0.4156379905090932 0.0047292402401721 1.0335853531918109 76 75 83
-0.2391022879580445 0.0160561989784655 1.2213790726143932 174 170 167
-0.4362304862768926 0.0216657732874190 1.0254558657484345 90 81 84
-0.4153279287936231 0.0215733919966550 1.0303218980787900 80 71 74
-0.3029228510792513 0.0236831661635308 1.2186033878952500 55 75 99
-0.4255741590487793 0.0309749565855440 1.0264637646370136 143 139 130
-0.4256387315531602 0.0309187221327154 1.0264524374088089 143 139 130
-0.4068163909545975 0.0471088492906307 1.0258486565488707 155 160 156
0.1088684832778598 0.0573278329959562 1.2835436640610993 57 77 104
0.1998198449771900 0.0802800520968611 1.2904988686486634 134 127 117
-0.1902100947604732 0.0837078011187778 1.2180922603573214 170 169 165
-0.2658772181617208 0.0843521311485531 1.2024427372405553 148 148 140
0.2148607462360669 0.0892364668312630 1.2926931185527502 94 75 71
0.1068944310488489 0.0928851752359589 1.2608536189034194 56 69 88
0.1667018683379381 0.0957432134533086 1.2810921072636996 76 102 117
0.1665112562426413 0.0958878060366955 1.2821370113093524 47 61 72
0.1881467080741320 0.0970142591780757 1.2916144679882662 62 75 92
0.3521852405142916 0.0943276107475097 1.1598204426605705 109 91 77
-0.2669116910247459 0.1331263006898419 1.1920459084166686 113 111 112
0.1549597512082479 0.1454657761862061 1.2686435648547261 126 123 116
-0.3460205470467579 0.1247367306817354 1.0225862262373073 69 63 51
-0.2679111675492749 0.1484860545241239 1.1918692829555926 145 149 148
-0.2383952258542810 0.1494396988826591 1.1959098852522358 103 99 96
-0.3459568049344623 0.1417411746769745 1.0188372428502397 62 54 43
-0.2386590756955873 0.1655365559876176 1.1929791182405816 106 106 98
-0.3910478406379796 0.1477260958178404 1.0162842263006397 18 25 31
-0.4255812295328064 0.1488297525723565 1.0036763376498887 149 137 113
-0.4255052121009103 0.1489127325760390 1.0033938937830558 149 137 113
-0.3257841565330453 0.1594096561413345 1.0193250985464068 89 70 63
-0.1901883889850248 0.1834520720943554 1.1990877302710969 109 111 106
-0.1907613925485932 0.2016841715744491 1.1956088656857364 100 99 97
0.2152226314348358 0.2265167453316288 1.2668200632548274 55 49 49
-0.2501157144877784 0.2252886611172238 1.1713197566683848 127 142 149
0.2254359352939789 0.2602754348701521 1.2199795835350895 81 93 109
-0.3624895265605211 -0.0837118550996335 1.0615605831657242 154 157 150
-0.2930276785948621 -0.0868754760771140 1.2402589957682146 116 102 99
-0.3323223648264896 -0.0596891146431023 1.0578032424833366 146 133 116
0.0077967468834080 -0.0486169031905936 1.2496847312037980 138 152 153
-0.3568434245941892 -0.0163750857274757 1.0459054047185672 144 140 129
-0.4037083429828811 -0.0021755130366070 1.0346046184676103 138 136 123
-0.4037083429828811 -0.0021755130366070 1.0346046184676103 138 136 123
-0.3576085873450462 -0.0017687489781544 1.0458869890376190 146 144 132
-0.4172597889292463 0.0425899108505784 1.0209544700290245 95 91 106
-0.1020335324645674 0.0598633032282955 1.2261116627151452 92 78 77
0.3115811632762222 0.0798752899701130 1.2015842422684004 71 76 96
0.3290071504135491 0.0970219913683568 1.1555602580698283 137 121 106
-0.1013381773523533 0.1434829220113157 1.2075707942969394 68 62 62
-0.2529261608560893 0.1578500006922828 1.1924303098148370 60 59 67
-0.2528547339301306 0.1578508416794766 1.1924511407690837 58 48 49
-0.1011792769243200 0.1602706118085990 1.2043233540329552 70 64 64
-0.2526521395771743 0.1745064556765404 1.1891303585663315 102 99 106
-0.1011374058469276 0.1766890732158652 1.2039126054508167 75 69 73
0.3299718853451306 0.1886731503647745 1.1377476238132551 149 154 158
-0.2530599579901639 0.1905964983195350 1.1860320787611469 107 100 108
-0.2530209931707069 0.2103510470937822 1.1823019380874180 52 47 51
0.2266418145696392 0.2380212594940138 1.2659977738642734 104 107 114
-0.0415380591331495 -0.2326088604798582 1.4344785738933883 158 157 171
-0.0415380591331495 -0.2326088604798582 1.4344785738933883 158 157 171
-0.4012836666922204 -0.0867990661206793 1.0595176767440890 125 125 123
-0.3111297772287220 -0.0434791155359799 1.0593295064586870 199 201 196
0.1359838032335405 -0.0463492465712275 1.3090016610698714 39 55 78
0.5430964055222898 -0.0019649204275601 1.1441237137125810 207 236 254
-0.2148253044354200 0.0259064987279424 1.2286710273751882 98 115 135
-0.4331390608723955 0.0415864238188085 1.0216184832387680 72 67 71
0.0590685192043262 0.0799446211347941 1.2287821358842019 167 172 176
0.2515749519111835 0.0910709709426143 1.2997161076180062 68 73 111
-0.1009250026764071 0.1277178865100254 1.2102844182046586 62 53 54
0.3289653104136542 0.1724922224939214 1.1425859385945878 141 137 136
0.3976899827903459 0.1976731171285726 1.1510988130056461 80 73 125
0.3286590030722061 0.2093023115416801 1.1331009340363249 109 108 113
-0.2551634668451085 -0.0521691938766864 1.2385510794347645 34 55 74
-0.1783245904084222 -0.0507685604098787 1.2524129086672633 42 56 82
-0.3352170782328808 0.1019554164595922 1.0286364979096627 93 74 70
-0.1913656297210131 -0.1848002573184157 1.3721065354320647 55 69 95
-0.0148237979586084 0.0414633661471348 1.2289026569957329 109 133 159
-0.0148237979586084 0.0414633661471348 1.2289026569957329 109 133 159
-0.3794919449140602 0.0481123760144264 1.0284170721801011 69 78 109
-0.3802197817909007 0.2278251654389767 0.9949961489736043 54 64 76
-0.4293868130365230 -0.0898369536436138 1.0567920009784264 59 92 135
0.5424076963594517 0.0274002141217756 1.1400488833244031 42 47 41
0.1019707437774040 0.2755641135628390 1.2287684657041935 39 52 84
-0.2514808785934669 -0.1550818235152132 1.4016975192683256 41 53 77
-0.3939441987817883 -0.2522354441917641 1.1676455769785166 255 249 255
-0.0472246044617773 -0.2937560891776755 1.4283169796381252 224 245 226
-0.4115802441175123 -0.2299946624534253 1.2774205954573701 105 94 90
-0.0455777856913954 -0.2481820443205202 1.4209005849073353 43 49 99
0.0308943082876363 -0.2442634257541329 1.4167203373861892 220 252 255
-0.2877961953127547 -0.2366314684341260 1.3857615850964302 49 47 120
-0.3561461041718629 -0.2185278726994307 1.3721066105778008 149 150 155
-0.0254831965126086 -0.2123018327871523 1.4132970726113876 152 154 179
0.0386329497500212 -0.2013063581164979 1.4007464384441541 154 157 164
-0.0483590391953591 -0.1965812017214235 1.3790853180886171 71 82 102
-0.0181555207039233 -0.1963996159175171 1.3858724572586136 127 143 177
0.3941853380663567 -0.1838212930658233 1.2881027333716790 198 250 248
0.3767832086878443 -0.1812614449472005 1.2853062067424819 111 113 161
-0.3551779961373000 -0.1757818751021230 1.3219983679831879 58 67 82
0.0335675673233286 -0.1803237218071933 1.3872768518626521 147 147 147
0.2824432564988970 -0.1901048305369196 1.4445113699780412 151 149 160
0.1863176787794472 -0.1857838255185064 1.4553457652772812 108 119 137
0.4010854543369329 -0.1633210860328546 1.2789754995978342 120 132 130
0.3348739410363575 -0.1901726480533102 1.5495465508707971 246 254 255
0.2807285753741505 -0.1722617396660207 1.4409271907491734 148 128 155
0.3649359818867493 -0.1511542533836359 1.2616876076761614 134 135 181
0.4137611008138148 -0.1468350369668230 1.2672020598281879 192 243 244
0.0363079353591120 -0.1526779428067090 1.3910154641499708 68 66 77
0.4114216044714544 -0.1439635297078069 1.2669161039185035 125 145 143
0.3543572615110709 -0.1216146319726859 1.2390509790929616 123 132 175
0.4169880243985318 -0.1220816127687523 1.2531377395984411 79 80 108
0.4169449036525961 -0.1220609774373322 1.2529383138476904 79 80 108
0.3494820250616050 -0.1090458941252927 1.2296395250568770 163 185 209
0.4300474521494325 -0.1100897603116110 1.2468378763474763 130 149 147
-0.3226502987433509 -0.0892074969887628 1.1304637736559753 126 123 132
0.2137390186147066 -0.0934116680272259 1.3773274670289535 4 41 57
0.4422528778458443 -0.0867275266246898 1.2306397094036896 120 146 145
-0.4024637259341530 -0.0675789027818696 1.0379482414492387 52 77 97
-0.3507362059865462 -0.0681540200554453 1.0572733086048258 120 141 162
0.4198656121092073 -0.0775729152029693 1.2064362990492201 144 135 136
0.2531800400012226 -0.0759633023337404 1.3290541593739014 133 131 116
0.3126436984476340 -0.0674536905052487 1.2432174576182649 104 96 83
0.3126436984476340 -0.0674536905052487 1.2432174576182649 104 96 83
-0.0187772581509845 -0.0640792287693850 1.2551705830531732 71 90 123
0.2295611585879299 -0.0647921731866938 1.3252023921681986 128 118 109
0.0161909209753760 -0.0447430496276631 1.2507700050053447 135 134 132
0.4096292822668561 -0.0437235598106397 1.1873855169798844 128 144 167
-0.1167707509414663 -0.0396833073670980 1.2613828726003928 0 25 39
0.4831963744469106 -0.0387982106669472 1.1992603231401966 225 255 248
0.2381151576988140 -0.0234515544361008 1.3198863138589660 131 137 135
0.1910282915548357 -0.0209501287589464 1.2982044179242049 113 128 147
0.2726340893753963 -0.0214430331165259 1.3265013384759030 15 37 58
0.2393194166207278 -0.0180574314295889 1.3082314182949957 71 84 103
0.3624602186585909 -0.0149218146502864 1.1820625658941593 90 81 76
0.1596786030654683 -0.0096586643179189 1.2941146584061296 154 137 117
0.3173818326177411 -0.0064304659378939 1.1879439751510692 146 103 86
0.3173818326177411 -0.0064304659378939 1.1879439751510692 146 103 86
-0.3503253272207050 -0.0038157425539266 1.0467415920159107 154 156 134
0.3172475761190783 -0.0047236848363306 1.1845224000582606 255 253 203
-0.3129102319954560 -0.0024192545500381 1.2072856573775301 131 129 116
-0.3129102319954560 -0.0024192545500381 1.2072856573775301 131 129 116
0.4572116820171842 0.0019124056672425 1.1967217538629271 104 92 80
0.3383221215276383 0.0057932209823450 1.1717894480567119 158 146 134
0.1015746252228941 0.0101388183951320 1.2810858853455414 121 114 96
0.4370373363532478 0.0212425666840249 1.1888112664960133 161 159 134
-0.3220115725241472 0.0572467251809395 1.1986581866869506 36 37 32
0.1459989854913635 0.0625689129885463 1.2852551870557014 146 137 120
0.1461468112167837 0.0623128497891853 1.2850109534206509 146 137 120
0.2231485450435880 0.0677383420136917 1.2992190685014036 82 72 63
-0.1844230470883371 0.0638002786132266 1.2229488313118542 154 149 143
0.1300835748872343 0.0733322698007833 1.2803849323810488 155 142 133
0.3309384699510282 0.0814788103401360 1.1525670653788322 80 81 67
0.3402698015726811 0.0820179935750751 1.1539425938183088 73 75 70
0.3728490334105926 0.0854162956233329 1.1593762552675762 141 134 124
0.3164931995451674 0.0851117215080755 1.1555980234561973 142 139 148
0.1378913695340837 0.0962169089844008 1.2778811084810708 85 67 63
-0.3165682743907258 0.0899807675488555 1.1920025812985686 62 68 66
-0.2495455486271846 0.0955870664791335 1.2050936190129076 118 112 112
-0.2495455486271846 0.0955870664791335 1.2050936190129076 118 112 112
-0.2413541817844093 0.0961498047228287 1.2131028626543614 122 123 118
-0.1798097184966243 0.0952558603805460 1.1860143684031537 133 132 128
0.1373239507621950 0.1073204841969188 1.2723056586193420 133 136 129
0.1500756466052970 0.1076034043870006 1.2729180064435397 131 129 130
0.1882141265601265 0.1086879872301924 1.2791634930631333 143 140 135
0.2061633286799865 0.1094483587783541 1.2831771612783018 139 134 130
0.2099116374632180 0.1096769108186168 1.2833781577922558 120 114 114
0.4399742926792647 0.1057483904773973 1.1734409773355565 60 53 47
-0.1687753665936529 0.1112016500267587 1.2175433325957417 55 51 48
-0.3054676100567263 0.1126954702201514 1.1870111766037637 79 79 69
0.3094071032505813 0.1201256715491581 1.1968753859228032 104 110 100
0.3522615284712655 0.1303223182767895 1.1521819887247859 77 59 47
-0.3293054825514514 0.1345958928200979 1.1787323458574177 151 152 134
-0.2614230875135791 0.1436007598605375 1.1943746822315731 52 52 44
-0.3495012342564284 0.1308051667722600 1.0199044023504686 161 156 136
0.4315196964910408 0.1597593985303035 1.1619938215989254 86 65 74
-0.4411745851885834 0.1366225956433809 1.0030443248902312 87 70 50
0.2651891929829773 0.1772442901367178 1.2934272763624917 0 23 30
-0.4083280920363426 0.1386440987868237 1.0085489793376563 156 139 129
0.2071520063090167 0.1753538968202387 1.2757811173601075 41 43 42
-0.1686397961079520 0.1654921080711682 1.2064294011999541 116 107 110
0.4281127281356071 0.1691194681825910 1.1585648310948022 72 61 59
0.3376464137275867 0.1664807852433291 1.1417273733075868 69 58 66
0.3376502757366428 0.1664122755492115 1.1418101967664014 69 58 66
0.1308063374000691 0.1973537948252550 1.2561624965950267 120 111 116
0.1308063374000691 0.1973537948252550 1.2561624965950267 120 111 116
0.2809559101326816 0.2093445669277189 1.2810829863247972 107 104 121
0.2843529487673813 0.2141974789886631 1.2808076188931374 101 98 107
0.0363406201048770 0.2155132780011382 1.1994195301297528 57 57 59
-0.4234254009693141 0.1851569932163380 0.9974327872820639 104 86 86
-0.3755715592808728 0.2129806499497461 0.9991388633138909 149 138 136
0.0192146936106850 0.2404514570647450 1.1019924708925026 22 39 49
-0.0159035002404823 0.2399717196455871 1.0818014990050933 37 53 69
0.2892984714113065 0.2873774919969076 1.2592400085014643 0 18 32
0.0342480738043684 -0.2450393964238904 1.4165077611777308 72 58 71
-0.3504700171040352 -0.2157085656954865 1.3319362133652808 87 92 112
-0.3502339095618288 -0.2156688390717431 1.3312759445473046 87 92 112
-0.0313679906627892 -0.2117662939643336 1.4098564032908312 137 154 172
0.3746010113967887 -0.1846331262170294 1.2867544647187292 104 82 164
-0.3552949761723043 -0.1809123743967199 1.3226509905084318 69 72 89
-0.3567885963228221 -0.1813676117997179 1.3281631006873709 69 72 89
0.3767845014829668 -0.1739230966036565 1.2805016769826632 37 50 94
0.0823119657899763 -0.1854926047881180 1.4336618900471680 99 113 140
0.0453880674512684 -0.1816809239450429 1.4179481492195456 40 57 77
0.3505793119922830 -0.1857083961480479 1.4589853298833610 75 68 84
0.2854923891993566 -0.1735744808751646 1.4417103209215303 81 75 89
-0.4359050513779596 -0.1208405144060489 1.0782339625342816 67 87 112
-0.3526336435799122 -0.1452275755297228 1.3163187278228925 119 133 142
-0.3552482788953553 -0.1441002672126458 1.3157027051104817 57 65 78
-0.3552482788953553 -0.1441002672126458 1.3157027051104817 57 65 78
0.0312735168112456 -0.1455708876327721 1.3874854976642603 112 125 142
-0.4358933188383816 -0.1100725879553274 1.0690403064635186 123 151 155
0.2830980350287491 -0.1444886475314967 1.4365251216873449 144 151 161
0.3992053771026940 -0.1057066592256024 1.2023593022435588 54 61 80
0.4000366864230358 -0.1022862607158202 1.2034118490814938 141 124 106
-0.0304968485282677 -0.0996515515842632 1.2520148734953178 102 95 87
-0.4050188640284980 -0.0760605623523068 1.0522070046353389 151 159 161
-0.3849926919377969 -0.0682518617828839 1.0431704581441625 108 124 149
0.2057218165667919 -0.0897892003861965 1.3729078219552358 38 54 69
0.2057218165667919 -0.0897892003861965 1.3729078219552358 38 54 69
0.2093725840372453 -0.0898147327752040 1.3754441592776918 31 54 72
0.2093725840372453 -0.0898147327752040 1.3754441592776918 31 54 72
-0.2995721326516801 -0.0785211738769210 1.2299984652580198 77 70 54
-0.0322939773834397 -0.0759400408678030 1.2461897214304705 120 110 98
-0.1237714612747178 -0.0660477477958271 1.2607223541906709 125 128 119
-0.1995853378656181 -0.0653000747529265 1.2474741536864042 110 102 91
-0.1284840652056795 -0.0660603663698290 1.2615328913582640 69 71 66
-0.3155918617640184 -0.0497933734635585 1.2240178950475100 31 46 65
0.2806829417298385 -0.0560416897063628 1.3531402799129808 91 97 129
0.2416115531456506 -0.0536473571240022 1.3307148292182733 59 56 49
-0.3121922164948384 -0.0389755541038492 1.2183754641769804 20 40 65
-0.3120741495369324 -0.0389939066873561 1.2179672190547208 20 40 65
-0.2734440755305817 -0.0387187374027719 1.2276809736789760 33 59 74
-0.2755787778119896 -0.0355706036218078 1.2081433347487265 115 121 133
-0.1588639254348022 -0.0355012992142468 1.2478484498787672 50 78 102
-0.2023946842610274 -0.0348383907102565 1.2430908306180777 120 133 150
0.4068362325444928 -0.0324805264466056 1.1863418381135244 101 88 69
-0.4397976223424563 -0.0227728433519636 1.0330033471833449 143 155 135
-0.4122689110482743 -0.0214808870369973 1.0392268447649469 153 152 148
-0.3651747208649909 -0.0144285429308945 1.0442090250196381 67 63 64
0.1594095320433014 -0.0091010394949871 1.2733403721539907 76 71 49
-0.4121055528550073 -0.0052209012738552 1.0360742000298087 153 152 160
-0.4122197998574135 -0.0052370432012312 1.0361061139986587 153 152 160
0.5532479666424344 -0.0005595696823100 1.1298670404535001 201 233 248
-0.3537641756849146 0.0090879498547998 1.0433727517335876 152 147 118
-0.1085243470351221 0.0137342509133288 1.2461716850230795 92 78 69
0.5480212822335118 0.0108035062935780 1.0981591818921799 93 80 48
-0.3512721607571578 0.0268776909025988 1.0413445220039441 70 70 62
-0.3223783453287317 0.0315476065171188 1.2034484328036048 128 113 106
0.2057483789768237 0.0398483958901586 1.3009667372431504 99 80 76
0.2229273454985923 0.0401070681096106 1.3044391736642844 77 68 53
-0.3220354537585702 0.0406439525241855 1.2022690628477282 64 59 53
-0.2456384821963734 0.0456094772325683 1.2153344720563644 135 128 122
-0.3033890024022004 0.0530301824126628 1.0345168314042272 197 211 212
-0.1686305828485498 0.0690603941092317 1.2250011399556147 147 138 123
-0.3218719087518979 0.0738860489774104 1.1954191432239578 57 53 52
0.5360517488000122 0.0767004363306530 1.1615550224893996 81 72 165
-0.0646261944262007 0.0969233366625249 1.1934133731507681 73 72 54
-0.3536992972180645 0.0836513880154387 1.0087054582281525 139 132 116
-0.3223459558446103 0.1030822729491638 1.1902581185651813 113 103 104
-0.3215370084804871 0.1064329752262375 1.1891857010469882 59 50 51
-0.3187647276102217 0.1076897783857702 1.1888740556150998 116 102 102
0.3385891932079112 0.1235085938497577 1.1493578311767407 145 139 123
0.0685168458305313 0.1316620016316093 1.2378916603941621 75 66 57
-0.3219518683162435 0.1412438499147352 1.1823598496486334 51 47 48
0.3637259422460387 0.1580890477724655 1.1491559990618547 89 75 75
-0.3308557259081787 0.1443454863311130 1.0211616168436131 148 133 112
0.3391508373586931 0.1690639915843644 1.1412027054709557 137 134 127
-0.3188740668443265 0.1704495133919610 1.1774659439950625 114 115 110
0.4386241693565386 0.1767812621423602 1.1594834121994111 132 129 110
0.2838280970528136 0.1936862198630221 1.2860137650982111 59 51 62
-0.3304104483689297 0.1769170883371944 1.1687194301636825 73 81 92
0.1463574325442031 0.1972449087227170 1.2595901354643109 115 114 112
-0.4395051589557263 0.1619548137286228 0.9976375633359675 152 149 114
-0.1836588260971491 0.2035528786612081 1.1959755888559382 105 103 106
0.0691509286787104 0.2167311228505147 1.2242204520058881 59 65 61
-0.0292640940086373 0.2142929793867577 1.1995799272418572 61 58 53
-0.0114496954506794 0.2149168657642102 1.2019625172539508 54 61 69
-0.3788273558206931 0.1840701347310531 1.0112391415231179 6 32 21
-0.3685651802083774 0.1838940898372276 1.0124950299303945 0 12 38
-0.4430664080057558 0.1872891251783881 0.9925231857835590 181 171 144
0.5418209522442388 0.2736703377905801 1.2428902906156400 109 119 67
0.5419424451019941 0.2803744889457958 1.2447358666273860 255 255 182
-0.0402490257262502 0.2488541280105741 1.0537956604469831 29 51 62
-0.4213818477037379 0.2337800798303145 0.9590080842526809 253 245 206
-0.0216209330760009 -0.2299478916648301 1.4305130936847639 189 220 248
-0.4105015032378762 -0.1778918011877819 1.1207003929923534 137 161 165
-0.0219368434600537 -0.2215289225359070 1.4285964969075717 202 239 255
-0.3617937615923588 -0.2164447132474641 1.4117469396150928 141 117 175
-0.4146176506717565 -0.1694471554013190 1.1161592414256598 143 171 175
-0.1017030262633448 -0.1951288321637469 1.3729330351309539 140 148 150
-0.0515553454613467 -0.1926834156136402 1.3750417907183734 81 93 117
-0.0070513380111260 -0.1912472201067259 1.3835039157058138 59 70 92
0.0218123242581462 -0.1951224952302910 1.4103048312555335 46 47 49
0.3341280552273074 -0.1567004734395665 1.5489409095870943 255 254 255
0.0119346827875702 -0.1015111573459090 1.2569674682684215 36 55 72
-0.2828849837836493 -0.0837946946938245 1.2328714439712409 94 84 74
0.3716198118261950 -0.0781424840691615 1.2006919607366182 255 255 228
0.1929731298257171 -0.0831288343027628 1.3572613958134299 39 52 71
0.4125897285334422 -0.0755606044531228 1.2041331118663159 108 99 90
0.3951143735404090 -0.0705906552655720 1.2072228363684829 115 133 153
-0.2783348709398197 -0.0620865988871738 1.2315377446872566 129 126 117
-0.4569674601059349 -0.0458014602728676 1.0386808234079539 95 96 80
-0.4084516597652777 -0.0256146206130483 1.0397205909539413 151 148 143
-0.2489815463569997 -0.0148871139867475 1.2258635823221924 78 68 66
-0.4151879916916530 -0.0043610722432692 1.0354513125694671 59 51 62
-0.0762527030780325 -0.0015781940327140 1.2207983367366153 115 101 90
-0.3224259735373117 0.0024367790105631 1.2095242824082972 75 58 51
0.3186956048373625 0.0026780613167546 1.1858862384052435 255 255 214
-0.3187836847179453 0.0033639422348570 1.2089330804211598 128 115 98
0.5426434549732201 0.0053360993634044 1.1363867537526982 201 237 249
0.3042649716724639 0.0113183218802035 1.2594181518875511 126 116 114
0.0727919261668715 0.0168307179418231 1.2801875533852587 136 125 107
0.5418119953331034 0.0143409118129479 1.1804396420324965 210 238 252
-0.3217182922556062 0.0236548971013086 1.2042416783168752 78 67 65
-0.3217182922556062 0.0236548971013086 1.2042416783168752 78 67 65
0.2097724420315755 0.0281301973188982 1.3040291589693855 102 83 79
0.4268984268227131 0.0286608288805241 1.1857426947912955 103 81 83
-0.4397107414379701 0.0263264663139799 1.0242342720628930 142 153 136
0.2681722712314106 0.0341877429577409 1.3151784669383202 60 57 50
-0.1435089704726882 0.0342426786421023 1.2460728992661771 53 74 105
0.4602660373057278 0.0335224242088809 1.1903703642984051 148 149 133
0.2026274010041137 0.0367117428127025 1.3004515575885209 135 129 115
0.5386294047746878 0.0428805935782129 1.1689736022793036 69 65 141
0.1257154791023691 0.0512193661406576 1.2834201071568798 143 136 117
0.5418469861520878 0.0521870268688229 1.1561625908315718 221 253 255
-0.1434548845644580 0.0557837777932987 1.2420217637558300 49 77 101
-0.1434138578951874 0.0555593161977817 1.2418318066554290 49 77 101
-0.2203004709081125 0.0582546910240423 1.2266639334817213 52 73 104
-0.2203775986053494 0.0694696629321890 1.2245433693046863 50 76 99
-0.2203775986053494 0.0694696629321890 1.2245433693046863 50 76 99
-0.3185733855959760 0.0696978182263019 1.1971642452290698 130 123 115
-0.1682275982485336 0.0723501923653341 1.2245447453635419 60 50 51
-0.4340656044720441 0.0781694881860660 1.0157085480409849 71 74 79
-0.0689046903240873 0.0910920331314971 1.1893610303975710 20 33 39
-0.2614457190917652 0.1210766413887398 1.1987695663626454 60 56 45
-0.4396051647873374 0.1177358580238499 1.0066167096478031 138 132 110
-0.4079063143761544 0.1252015309461039 1.0108104192384886 149 137 125
0.3840831264310033 0.1654710801223427 1.1552014979044312 59 72 104
-0.2610865993207199 0.1766175463647658 1.1873093179078655 63 55 52
0.3679707357084318 0.2056477117141036 1.1406839442799890 120 127 109
-0.4141923878259263 0.1813473521404617 0.9990410614939415 83 51 56
-0.3216396514730788 0.1869857345429257 1.0145403144383403 140 130 121
0.0494536035664172 0.2258677449647289 1.1568888267014295 107 121 132
0.0581577615966356 0.2464163610250854 1.1525155378620011 98 108 118
0.4719327695992890 0.2640146524291916 1.1425958718287996 56 61 65
-0.0526106573719153 -0.2460964682050367 1.4225742407743462 166 161 181
-0.4075328992118373 -0.2260553816264357 1.3021630462481186 158 156 161
-0.4058924378136832 -0.2202219175797231 1.3067920052940631 137 127 164
-0.0267203889889579 -0.2306120032749644 1.4340016321881868 100 91 118
-0.0264586015820309 -0.2192174408704106 1.4357263083532463 104 107 122
-0.2997761101192149 -0.1748869666254959 1.3542789107094895 114 142 166
0.2854287272740487 -0.1358463968286983 1.4381073216034546 141 151 153
-0.0162070912984312 -0.1114222054811986 1.2592014163103920 71 75 76
-0.1137897110524912 -0.1012269667924578 1.3210068393687895 42 59 75
-0.2334118328615063 -0.0836624549978753 1.2402161747167264 140 130 121
0.2809291142347295 -0.0957561580636785 1.4250730609943505 101 109 112
0.4086912445710086 -0.0616077792610219 1.2021529486172602 151 154 143
-0.4440194124183686 -0.0293422791739518 1.0328880607489006 151 157 145
-0.3265143128209662 -0.0156429755524695 1.2110439589191486 63 57 45
0.3386874291321510 -0.0170446752494143 1.1769191628140214 117 96 91
0.4548488212043463 -0.0080276318773015 1.1972691066320058 141 134 118
0.2049764281850026 0.0012005074071355 1.3072161670229283 142 130 118
-0.3268085764961348 0.0099150671108536 1.2062523124958471 73 63 62
0.1440579581960431 0.0111966978872558 1.2928810254805694 149 138 118
0.1440579581960431 0.0111966978872558 1.2928810254805694 149 138 118
0.4120025423015807 0.0097485534034925 1.1875073409024153 87 75 51
0.3704959820463516 0.0125371593899464 1.1774788490826613 162 153 122
0.2975447044107740 0.0298954563698479 1.2916482735531685 68 64 52
-0.3508304001692505 0.0475335833795595 1.0353755611811333 152 154 140
0.4130853798379709 0.0802939105217951 1.1728316131496304 76 80 89
0.3184685016894123 0.1037749907365377 1.1685679738894112 86 76 75
-0.3264573743821055 0.1140510339540858 1.1815379427778601 94 96 82
-0.3471555336277500 0.1010732178335677 1.0277272511571682 89 75 72
0.2976774962519513 0.1278531941010807 1.2716225324508719 105 109 112
0.2873990412748455 0.1336109213721600 1.2953861486112368 105 109 108
0.4282165372305376 0.1335326158639741 1.1647620952681284 103 79 79
0.4282165372305376 0.1335326158639741 1.1647620952681284 103 79 79
0.3069271102983893 0.1412269147007123 1.2260264593229155 79 68 76
-0.3311904411937933 0.1408574830415036 1.0213986431653628 148 128 104
-0.4144749787887291 0.1479591210295827 1.0057144316063145 94 72 74
0.3970107722561222 0.1795687861712149 1.1560020722216375 102 121 119
0.3069706656285098 0.1914612937291790 1.2160668257312297 70 63 70
0.3970807034151493 0.1948644312066398 1.1531362857777889 92 116 116
0.3970745974809710 0.1947257991251002 1.1532235408823130 92 116 116
-0.0312055181951986 0.2133302708819147 1.1988806443978648 78 66 66
-0.3208970838639532 0.2135843308185557 1.1685416945215352 93 102 101
-0.3624648736936675 -0.2315549244010573 1.3337423725758886 123 127 139
-0.0671389174916951 -0.2062390416327343 1.3867103958473883 49 60 82
-0.3604234912474998 -0.2081951781086391 1.4109531272969993 236 255 253
-0.3595266026727724 -0.0680455795232970 1.0349900719884075 124 142 154
0.2890626136182169 -0.0949436783184321 1.4290873220616942 86 94 96
-0.1190049778840752 -0.0767081075513044 1.2596604548902006 128 122 108
0.1368148841379959 -0.0812965037178596 1.3540752360375203 88 98 123
0.3212607591202539 -0.0385636842572194 1.1676095615333464 160 142 118
0.3348963592972711 -0.0381527150144962 1.1708217725169019 166 150 125
0.0220345086479126 -0.0374837646526911 1.2502176031172620 61 65 74
0.2028194344178484 -0.0383943568427074 1.3193136278049562 48 52 77
-0.0284901030917264 -0.0304707054705580 1.2323123374657940 88 91 106
-0.3141287490283005 -0.0283076982185679 1.2078239244707916 130 123 105
-0.3142712815545278 -0.0282992165905183 1.2079535687116405 130 123 105
-0.2117389355429541 -0.0267396051563709 1.2336496641929233 140 131 114
-0.3203527036726678 -0.0155251540166594 1.2117805294831661 133 121 97
-0.1699171214623393 -0.0037628909697978 1.2386957275186437 115 96 100
-0.3266803788599162 0.0160112050937368 1.2052048019742241 65 57 46
-0.1307135958091190 0.0167251926920628 1.2430976330044519 135 129 115
-0.3267024952037758 0.0299839791209423 1.2025907100420006 64 56 53
-0.3618042768997724 0.0441213603817281 1.0342032307011646 153 142 136
0.3681041814705115 0.0543089193034620 1.1688205848519819 162 157 137
-0.3209137636395071 0.0620067236371402 1.1974828961110062 130 126 117
-0.4595255977957632 0.0645450082033919 1.0146292191933051 255 254 255
0.3437085437530642 0.0772941025637418 1.1606295669128053 162 155 147
-0.3210239962893224 0.0786737685821002 1.1945503511615121 120 126 114
-0.3264668196622028 0.0805237905033627 1.1926618085427017 65 55 56
-0.4041388342039613 0.0778149886832836 1.0174346116508242 153 145 134
-0.3261861390578266 0.1011742773962895 1.1885018954183517 73 60 52
-0.3202158342595133 0.1027760224265575 1.1900651760418737 116 113 108
0.2053523347204831 0.1174910577480553 1.2852456358798683 127 115 101
-0.3209482449108224 0.1304133493459781 1.1850835334058480 107 107 95
0.3889460886889555 0.1473453418553812 1.1597703298164528 92 99 109
0.3889460886889555 0.1473453418553812 1.1597703298164528 92 99 109
-0.3262105997836562 0.1457192239774461 1.1797648427351091 62 52 53
-0.3207413072883245 0.1471259254885652 1.1818032882234251 116 117 109
0.2236956575337818 0.1635036980346323 1.2806519581508085 116 117 111
-0.3817350656598361 0.1404363639743454 1.0187723025891604 114 133 147
-0.3541111655168418 0.1420266430504921 1.0173522295348987 148 140 117
-0.3209873720793575 0.1634659539573689 1.1789038563474783 113 115 112
0.4272032238476697 0.1748690821201854 1.1568842943492388 125 123 111
0.3619824116718744 0.1731487214309989 1.1455387160409518 102 79 71
-0.3210260759067210 0.1806695364741531 1.1755934707811830 104 108 111
-0.3207862206778733 0.1973271347176347 1.1716964954504241 96 101 105
-0.3259950120826869 0.1980633113352537 1.1696368014630891 46 40 44
-0.3261214240774716 0.2155858519806426 1.1664641411327483 45 43 48
-0.4103706975435796 0.1952227070853554 0.9951033217010736 165 156 127
0.1706390197039571 0.2493423867249472 1.2498545477802339 46 54 67
0.2539580565896224 0.2597097632613069 1.2633827814712628 73 86 95
-0.5086288795619505 0.2212168513673499 1.0410288980288713 224 216 195
-0.3695536706349685 0.2140635349598411 1.0007265499724944 143 138 135
-0.3683145202659604 0.2180089449570894 0.9992791403569919 80 83 118
-0.4018012689219981 -0.2261056435353966 1.3145070826880800 239 255 254
-0.2811593739281166 -0.2165786097674445 1.3859064441780504 231 252 255
-0.0074390495910487 -0.1190646261991379 1.2862800599992441 48 64 90
0.2885393900492325 -0.1107482923354660 1.4304156833757404 95 103 105
-0.3153540502915030 -0.0713400056355863 1.0601464130745983 29 47 71
-0.3153540502915030 -0.0713400056355863 1.0601464130745983 29 47 71
-0.4262619806495629 -0.0624176852145481 1.0332687773968126 143 130 111
0.2570493881524280 -0.0840433294943179 1.3796657747452479 41 50 67
0.3074484879180592 -0.0643156763516917 1.2606844433626583 49 52 45
0.1671040259321143 -0.0451427207359793 1.3148180327903802 70 99 139
-0.4127516301242553 -0.0274487875146048 1.0394695852684726 95 80 83
-0.3228080175881680 -0.0088436028534590 1.2077599662906626 55 48 42
0.3680534937415643 0.0206302412388104 1.1756110438517280 164 158 144
0.1122278126975512 0.0238283122038450 1.2875076392813234 140 132 113
0.3164731699105054 0.0236004033139849 1.1960760308966811 139 134 128
0.2203781022796954 0.0381817778845113 1.3042928028570722 109 80 74
0.2208905328860508 0.0542617646556018 1.3018129254724293 87 69 59
0.2928989287940581 0.1054043769042841 1.2993781030593456 129 132 141
-0.3235399795808181 0.1088545588578076 1.1869790595555951 67 56 60
-0.0440991500710007 0.2139264683278135 1.1715483656808032 21 34 40
0.3033059716132839 0.2537173581638135 1.2305264924987400 85 95 107
0.1704568329091531 0.2574432089702769 1.2524751308762760 91 100 109
-0.3960304975866064 -0.2374547649296546 1.1633727010057722 64 75 105
-0.3960304975866064 -0.2374547649296546 1.1633727010057722 64 75 105
-0.4047138619489594 -0.2342200787868153 1.3080036698755138 118 116 119
-0.4595409578026191 -0.0750117377411631 1.0404259853550688 255 255 255
-0.1964432696056874 -0.0893174857443022 1.2682840822369856 35 49 78
-0.3090458358208902 -0.0492984323901875 1.2265134555161490 129 128 124
-0.1221842725427614 -0.0435806767851279 1.2574394935703197 135 137 136
0.3122744518131064 0.0169717910103215 1.2100141954131183 73 72 80
0.4043642882059972 0.0369331969670715 1.1876008262300921 57 71 97
-0.3250196963085277 0.0380985655165309 1.2023017904949806 79 65 62
-0.3247760808817389 0.0542536362483230 1.1986091604912754 71 60 58
-0.3242343101023457 0.0713160873829333 1.1948928199207560 75 61 61
0.4343524051806151 0.1012577825222775 1.1728199537813322 113 89 87
0.2182886919765760 0.1391550651141524 1.2879916276181076 102 83 79
0.3875604642920021 0.1356899328258729 1.1614498208951491 29 29 27
-0.3247066700242917 0.1387733209308730 1.1820865012720450 66 58 55
0.3968933811409776 0.1477326560992695 1.1621139519853987 90 100 112
0.3875242711378020 0.1562230018373816 1.1593272947172761 37 37 27
-0.3243879684257457 0.1558388829261736 1.1785603366506525 68 54 54
0.3877371835147995 0.1719284922408259 1.1557052716136387 11 22 16
0.1657838357394558 0.1932677757443028 1.2656874883904674 49 48 30
0.0895295260052270 0.2067942061922166 1.2555926837188052 52 49 34
0.3880291043038831 0.2031194159068226 1.1495678092558279 20 26 24
0.3130301319418141 0.2492360281543679 1.1717291604672513 34 36 51
0.0372214889688506 -0.1503434212706964 1.3899789370074569 116 125 142
-0.1774224176878872 -0.0074706838549027 1.2385942845699280 124 101 95
-0.4155730247123443 0.0047036806533864 1.0335017244307341 76 75 83
-0.4154899465692835 0.0215678747022333 1.0305118551706123 80 71 74
-0.3139642138804669 0.0583559155864166 1.0390755318739229 84 84 86
0.2763943661017764 0.1502353678269591 1.2914838708212197 115 115 117
0.0897061117245370 0.2237942816243980 1.2522662621814882 41 41 33
0.1081981338825547 0.2240189444870880 1.2536206139762376 26 33 25
-0.3007555239327166 0.2059968567445755 1.0171969665532035 58 70 86
0.0202139992462442 -0.2048530494443124 1.4075853747339937 247 234 217
0.4148505764096604 -0.0592461342443711 1.2022637562601268 151 148 141
0.3483911346704752 -0.0383856430324913 1.1820726187777884 167 148 116
-0.4356411226395709 -0.0115003592791608 1.0319693531645255 93 94 98
-0.3710719251178514 -0.0083893259725655 1.0462713092076157 58 77 107
-0.3028718650131677 0.0232147695906629 1.2185217356395086 55 75 99
-0.3135647571321273 0.0298316102495831 1.2066429236793503 124 111 103
0.4192415431544596 0.0379835044815734 1.1829518474765963 143 134 125
-0.1018669279682265 0.0435792748255158 1.2287866983367399 86 72 71
-0.2682210571908177 0.0475445448115612 1.2093951160365588 127 121 109
-0.3123938191271217 0.0634307672384478 1.1971152832725680 117 117 107
-0.1019682589106489 0.0769083499901600 1.2261572634214521 77 65 65
-0.1619485524172557 0.1372703420588944 1.2132069009214028 118 114 113
0.2005122258552644 0.1636068484478585 1.2760604034500984 117 110 102
-0.1009862821319497 0.1929082327226596 1.2003006305667414 65 58 66
0.2234987069499896 -0.1798706488053965 1.4492484260670164 199 236 255
0.3953374036003465 -0.0718659999994932 1.2041761247408622 105 124 154
-0.0363749483478592 -0.0648135060088263 1.2448388738885927 141 130 124
0.3165551260447038 -0.0158962931859856 1.1842017681935573 255 246 209
-0.4015918762502109 0.0142159337272348 1.0297947230523361 133 122 120
-0.4015918762502109 0.0142159337272348 1.0297947230523361 133 122 120
-0.0056902410854449 0.0869325318795147 1.2261352701111068 51 68 84
-0.4032643230653745 0.1030343595360877 1.0183151336925667 152 135 125
0.0415354806917769 0.1168037175429249 0.3881260252914276 109 97 83
0.3410233936836369 -0.1568812095940981 1.4354418458246867 50 67 93
0.1360363225349417 -0.0463471127036846 1.3088464314782617 39 55 78
0.3513603410200362 0.1942636603345751 1.1398299994537142 82 66 53
0.3293290668574749 0.2100982270176702 1.1358982373314415 109 108 113
-0.4262551238216781 0.2166617473746994 0.9927472145161866 160 149 131
-0.4262343369249996 0.2167819660264118 0.9926988704867602 160 149 131
-0.1317774771122663 -0.2143735269220641 1.3689236520599886 223 248 255
0.3134860109859623 -0.1868572333280918 1.4284264224894236 193 231 254
0.0650710796217737 -0.1745406210112669 1.4123457985693497 41 55 81
-0.3837189085818580 -0.1183259794713661 1.0737096490624367 147 143 134
-0.4569218702732958 -0.0869738562950676 1.0427466029467161 255 255 255
0.4399259391881119 -0.0598428662484125 1.2096442205115554 39 43 70
-0.1782624501352489 -0.0526265588710531 1.2519672449866388 41 55 81
0.0300170649383730 -0.0556015368866080 1.2665190503488895 30 43 62
-0.3147682196123788 -0.0430204922776188 1.0745264382987603 151 144 134
-0.3804463003911222 0.0485795886127720 1.0302900443356340 69 78 109
-0.2507529844008033 -0.2297640315615822 1.3981698336928321 228 252 255
-0.0135726302565105 0.0816642812862427 1.2170943967167351 56 76 100
0.3975347151039565 0.2570533985630601 1.1318843091813391 44 51 67
0.3879546838070947 -0.1338435571381764 1.2639806474485888 34 46 68
-0.0212946786152066 -0.0924229726835109 1.2787078079285810 105 104 102
-0.4694805910017127 -0.0242067230185591 1.0192005066223322 255 255 255
-0.0641247636407800 0.0511111066713367 1.2165949888997687 140 134 120
0.0387015269361504 0.0310378725591027 1.2373749962145031 133 124 115
0.0387015269361504 0.0310378725591027 1.2373749962145031 133 124 115
-0.1084649623970962 -0.2420475713136512 1.3889271336028461 141 150 159
-0.4214955033115528 -0.2281343990953675 1.2993213813701623 139 141 154
-0.0566746598155546 -0.2382739266389679 1.4214082246759983 45 52 81
-0.4146624861009879 -0.2138829885909057 1.2985220083566693 169 178 193
-0.4146624861009879 -0.2138829885909057 1.2985220083566693 169 178 193
0.3864809413856619 -0.2039267571643339 1.3017005238723751 226 255 255
-0.0445883705976868 -0.2120095488473465 1.4075004558240514 191 204 223
0.3583591421849384 -0.2073221619835554 1.4607571204012104 48 55 74
0.3583591421849384 -0.2073221619835554 1.4607571204012104 48 55 74
0.2879060798247690 -0.1933258081298615 1.4488943694565404 164 172 175
-0.3552411618284971 -0.1809702973934510 1.3224110218753735 75 82 110
0.1370848569781109 -0.1911082076464425 1.4497706305370630 64 81 107
0.2826779557955528 -0.1928363785497233 1.4447011396809959 166 173 183
0.0925982904396718 -0.1852603368006135 1.4350163168254533 87 105 145
0.4031588730460508 -0.1662108353353217 1.2810788096570351 97 118 137
0.3690542255954899 -0.1604365347204129 1.2674665730005572 36 41 83
-0.0682979205127971 -0.1670060617419305 1.3482735782562443 156 180 214
0.4100679972620749 -0.1527848650801852 1.2718001609138798 103 126 160
0.2808369926223790 -0.1635888574610300 1.4389746054683838 147 137 206
0.2856948654457843 -0.1572392340192601 1.4383779195679929 103 107 132
0.4232235312539368 -0.1358776125039813 1.2662261308364633 229 254 251
0.0441764161162858 -0.1446202923164649 1.3888189390354821 140 161 188
0.4187301449233196 -0.1258487699098724 1.2564556927136941 56 82 109
-0.3599677545358009 -0.1005640136913483 1.0721292782581910 180 184 195
-0.1145595410957842 -0.1110780772346627 1.3166629029283126 36 57 78
-0.1866495633116951 -0.0995492405073683 1.3020042305619504 99 121 158
-0.1204692612251082 -0.0981326800295150 1.3134012604781407 141 171 205
0.1289728361475978 -0.1001399891317311 1.3632297930059218 105 123 163
-0.3204633914004384 -0.0840311515435599 1.1465188056903228 124 129 133
0.0501597329083876 -0.0958194837956210 1.3454336101714786 65 80 103
0.1248176676654193 -0.0921133964286657 1.3588628122199176 67 81 108
0.3252186415963912 -0.0793755273685580 1.2492212025281038 123 124 128
-0.1615236286796279 -0.0774230725261756 1.2553047851465857 161 163 152
0.4506233308940605 -0.0729580899757782 1.2246159937669807 141 167 156
0.2625760274861070 -0.0534011085297303 1.3342392791867552 61 67 57
0.4180745217875148 -0.0463378176015235 1.1997401414568858 68 90 127
0.4226949195171466 -0.0467209574217690 1.2017560433911352 61 78 108
0.4174063885124187 -0.0439059489249617 1.1950769464855895 138 156 176
-0.2804691174686590 -0.0409984968059966 1.2235809741319579 67 81 94
0.4791954230570580 -0.0284012594907239 1.1997749857407314 48 62 65
0.2327612393696208 -0.0272261471952925 1.3214306100757072 164 174 173
-0.0735221241625080 -0.0240188645924167 1.2196389614624750 132 125 115
0.0239984680966021 -0.0232435503194957 1.2375439185888542 147 138 123
0.1062243643150099 -0.0244083909757356 1.3087121360404141 122 137 170
-0.3294237910501553 -0.0185788128792781 1.2089490186997793 185 180 161
0.0725521814271296 -0.0154175961495654 1.2777253948460834 179 172 156
0.0899429184918069 -0.0118075488040902 1.2812433385935040 175 173 148
-0.3297474273485532 -0.0130358243498296 1.2085221989127100 187 188 183
-0.3061092135539257 -0.0023751294823170 1.2076655507536929 168 173 166
0.1294610898507250 0.0003181008036437 1.2933215369811317 178 177 173
-0.3239298649414615 0.0091460024080554 1.1619980332558932 109 119 121
0.3666585091020574 0.0153451178929158 1.1773505157092996 113 104 99
0.4575000129445011 0.0289154210674055 1.1913640139280106 104 94 93
0.2377259089790396 0.0335002802590172 1.3089306430794856 84 74 83
0.2377259089790396 0.0335002802590172 1.3089306430794856 84 74 83
0.4272339664165531 0.0368906511734352 1.1846656215317986 175 181 171
0.3985602354862103 0.0443507634608136 1.1849417271398546 63 85 145
-0.3293432038408696 0.0454940482909794 1.1962424822827573 151 166 159
0.3985748181411468 0.0476599045507116 1.1833781811428903 58 79 144
0.3387900537500476 0.0501311780286823 1.1644627523254607 172 171 151
0.5405449026075296 0.0557189661043340 1.1580822014840948 48 51 158
-0.3210766807403442 0.0508885422955818 1.1373988527683860 164 166 163
0.5390667559937863 0.0594429487591817 1.1688436389758330 50 48 171
0.3928704201726072 0.0606653478408801 1.1801314062315507 67 90 121
0.0700220110590566 0.0879793995684666 1.2661210443126685 163 167 153
0.2231041252816130 0.0906787291048668 1.2944290149864457 91 85 89
-0.2589223890361598 0.0859739714756760 1.2073034096029553 141 142 147
0.4509167313048434 0.0878515238713678 1.1732831307906695 126 129 122
0.5353704738812599 0.0914062387890720 1.1696579748240450 74 82 189
0.1465294576255899 0.1076395104348219 1.2740277102380191 134 140 140
0.4324045814415069 0.1054302302884106 1.1728318433587419 80 78 83
-0.3280228212791446 0.1117839166640583 1.1710370508421402 136 141 137
0.4581240560397693 0.1157809211057734 1.1755259393554458 95 82 91
0.2836471818419911 0.1257771903246538 1.2991520330113095 44 47 64
